ply
format ascii 1.0
element vertex 682
property double x
property double y
property double z
property uchar red
property uchar green
property uchar blue
end_header
-0.7585587157956066 0.2184783723821923 0.3624902221640658 255 255 255
-0.7264139449626672 0.2370757289728832 0.3610707181688371 255 255 255
-0.7403879154782893 0.2480459887187315 0.3032057488942614 255 255 255
-0.7008848197127882 0.2467401960870317 0.2788025468322506 255 255 255
-0.7696705808963986 0.2647944548025098 0.3971618938306686 255 255 255
-0.7627470635068331 0.2826510919839217 0.3451898557099254 255 255 255
-1.1006718666402251 0.5726807231283760 0.6823439854797082 255 255 255
-0.7354267697387482 0.5695060689174509 0.1847353418901494 255 255 255
-0.4518104575805444 0.4767465770093244 0.1800411379870856 255 255 255
-0.4883564392442183 0.5703256407553536 0.1033202900526380 255 255 255
-0.5899335253404600 0.5987104847591487 0.0108848098881799 255 255 255
-0.4484490131396184 0.5672977930223588 0.1087625311293579 255 255 255
-0.1701975227186261 0.4913977692317657 0.1660148711540328 255 255 255
-0.5587019518118805 0.6012067068237061 -0.1625518762695857 255 255 255
-0.3549593920634564 0.5760695062845348 0.1097669692247973 255 255 255
-0.2463995124775311 0.5726637784578923 0.2259436516899211 255 255 255
-0.4088445663472324 0.5987065520070411 -0.0408345767423013 255 255 255
-0.2383121202847940 0.5788225306005298 0.1652258899181729 255 255 255
-0.2081656674378010 0.5729570379415621 0.1699305456180453 255 255 255
-0.2387990093941377 0.5792808899500788 0.1075875238839257 255 255 255
0.0233895340671682 0.5624243212378883 0.4799418058271350 255 255 255
-0.2692369736227781 0.5954852335359642 0.0064571120205514 255 255 255
-0.1120386115687937 0.5772819199006303 0.2334669031517045 255 255 255
-0.2925817707288694 0.6006522333169695 -0.0796344836969389 255 255 255
0.0794966814077094 0.5573496431588544 0.4660103038655583 255 255 255
-0.1245278385544258 0.9681220378307669 1.2649844395665624 255 255 255
-0.3148409682863620 0.6041567869537645 -0.2038997711429804 255 255 255
-0.3312810499069223 0.0496861018383591 0.8221196507467058 255 255 255
-0.7806803311225088 0.2267174697808954 0.3626552417187400 255 255 255
-0.9359474682810227 0.4946350685305971 0.2901650236611040 255 255 255
-0.4637911120548753 0.4811333569936251 0.1723899903075481 255 255 255
-0.4974791315447229 0.5756201605477171 0.0986454568394421 255 255 255
-0.1472898987373098 0.4729482885896861 0.1428618282829732 255 255 255
0.0314095514794761 0.5516531661662841 0.7058404156314142 255 255 255
0.0228004235932673 0.5548997801139326 0.6115196408311204 255 255 255
-0.2160693274072429 0.6068664981071779 0.2039930194411289 255 255 255
0.1494057479818460 0.5463313383304311 0.5856662163803322 255 255 255
0.0670955183095497 0.5649530792999331 0.3636929959572921 255 255 255
-1.0227747241374461 0.2395903752009803 0.8735266955424130 255 255 255
-0.7628120468619146 0.2138144021131042 0.2449647501375916 255 255 255
-0.2934180094876990 0.5811525104658575 -0.0327936265605558 255 255 255
-1.3380833678353614 0.5954544451250134 0.0244995542653621 255 255 255
-0.8848055872828411 0.6111900952216303 0.5446418531310817 255 255 255
-0.4611303643175031 0.4836345936231365 0.1709368133840856 255 255 255
-0.6577481138535681 0.5762407990731662 0.1088372695232191 255 255 255
-0.6087791915747056 0.5699012666602346 0.1441239734273614 255 255 255
-0.6239441759811371 0.5757637655890901 0.1012324597438381 255 255 255
-0.3126886263892482 0.4819555259648889 0.1696897112924375 255 255 255
-0.4584673854854304 0.5624377847131883 0.2063030365090177 255 255 255
-0.4994710631857631 0.5761769120483300 0.0978618876547346 255 255 255
-0.4998057894828624 0.5721641542284015 0.0661830532524887 255 255 255
-0.4590746736982152 0.5698487622376835 0.1107303764129428 255 255 255
0.0476148831910507 0.5179277651194076 0.8427464996171178 255 255 255
-0.3626782321466782 0.5742355518502928 0.1144679767954448 255 255 255
-0.3258079361875672 0.5756184429952728 0.0963752190494355 255 255 255
-0.1114059878156910 0.5580252056279587 0.3542159888896410 255 255 255
-0.2450838222818261 0.5811861615219556 0.1754029961539927 255 255 255
0.0124032896368937 0.5687903178766780 0.2960495124180187 255 255 255
-0.3071580128587899 0.4857778023676596 0.1688065649114270 255 255 255
-0.4980020124872127 0.5661942341035924 0.0643497675837033 255 255 255
-0.3218253735974215 0.5645829235579325 0.1136479209030141 255 255 255
-0.3198072541607451 0.5671433844810962 0.0635898817871872 255 255 255
-0.2603771149700330 0.5875313323568043 -0.0090647282799379 255 255 255
-0.1446401809137730 0.5711763624990618 0.0624237270180164 255 255 255
-0.7391728291272557 0.5726267789133755 0.1163708652798912 255 255 255
-0.6025535490847354 0.4942859874356951 0.1751481031294340 255 255 255
-0.6294407536015532 0.5536029398066009 0.1610173199131368 255 255 255
-0.4668727144604703 0.5742647335094361 0.1224116649349861 255 255 255
-0.3212005768168624 0.5666340965656307 0.0653796932376798 255 255 255
-0.2697044097828569 0.5707886678147981 0.0700407262465474 255 255 255
-0.2614092486010587 0.5577871077978011 0.1138892100087031 255 255 255
-0.6059101469471129 0.5570699873228828 0.1826578351508514 255 255 255
-1.2793697900452154 0.0958711926013344 0.8218261716843012 255 255 255
-0.1689650459007420 0.0022808983562385 0.7703455161380010 255 255 255
-0.9993631448433380 0.1497315889456152 0.2373982299401867 255 255 255
-0.0522677803212734 0.1147259836652477 0.8411813515872090 255 255 255
-0.7980264672019945 0.1808820474181871 0.3482416399569694 255 255 255
-0.7847632130239632 0.1572293473164450 0.3184282145808526 255 255 255
-0.7592161348402993 0.2717455938419659 0.3075958826145371 255 255 255
-1.0186713330373540 0.5629507653539403 0.3366100986599418 255 255 255
-0.9537570242050335 0.5727197085741571 0.2933462591027411 255 255 255
-0.8459971564872913 0.5688229579937885 0.3972464554739048 255 255 255
-0.6582342860833551 0.5552736238389645 0.3669434990934248 255 255 255
-0.6148370674855990 0.5740579885775121 0.1110478180356207 255 255 255
0.1258849942196064 0.6667543187247436 1.0395984051525446 255 255 255
-0.4633102037671986 0.5956671528985904 0.0095015339743929 255 255 255
0.0146530891646560 0.5713218723554826 0.4873077684551248 255 255 255
0.1005511316125422 0.7163847878395733 1.0164422775632787 255 255 255
-0.5181719959522653 0.6013576557189309 -0.2064435273133167 255 255 255
-0.3578518594479882 0.6035148385451462 0.0082198763586280 255 255 255
-0.3403237079588799 0.6061034262171262 -0.1187514956775810 255 255 255
-0.2451417281267512 0.5996334294893924 -0.0794711562585269 255 255 255
0.1454028730949031 0.5632228987093257 0.3450369398287405 255 255 255
-0.3396527893920362 0.6050943903463839 -0.2081698013106879 255 255 255
-0.2951325314643989 0.6021525412582087 -0.1579471737609364 255 255 255
-0.6211397925287900 0.5677988394680411 0.0646591767906486 255 255 255
-0.2962155541234884 0.4851155304673799 0.1383209105800735 255 255 255
-0.1501024477280003 0.4737325711219765 0.1028882266329641 255 255 255
-0.1685758337271328 0.5714564984467594 0.1413770801748369 255 255 255
-0.5424559837831713 0.6033452110613231 -0.2860338785512151 255 255 255
-0.5652243553419849 0.5751468645708853 0.1295666284036754 255 255 255
-0.2038835976265573 0.5435054954250916 0.0545442833251709 255 255 255
-0.0754540773657645 -0.0443719351096647 0.7564430046239710 255 255 255
-1.3587768182772315 0.0019545314840235 0.8176437764585138 255 255 255
-1.2369968893846073 0.1579586118153125 0.8760404729181961 255 255 255
-0.5231047622786773 0.5102116697022783 0.2262634421330660 255 255 255
-0.6218652932903588 0.5710488331907815 0.0706218244400318 255 255 255
-0.4438902774129518 0.5689545919269199 0.1240539500252291 255 255 255
-0.3290772183564057 0.5524663928416587 0.1727321570490323 255 255 255
-0.2818571382051083 0.5741059122315408 0.0895742468396552 255 255 255
-0.1817508337582101 0.5586482335435401 0.1628464126612563 255 255 255
0.0841339720723771 0.5611404013326102 0.4573553638429093 255 255 255
-0.1890651332817725 0.5943133427058249 -0.0095338333075905 255 255 255
0.0321847440988946 0.5387648091668675 0.8021796042410241 255 255 255
0.0285055756242761 0.5516860893119986 0.7356086080945792 255 255 255
-0.1053122208081119 0.5735581600331905 0.2148524698404195 255 255 255
-0.7983283757481205 0.2040560522390636 0.3094827214010514 255 255 255
-0.4860986332999264 0.5585682944738495 0.1099920963030510 255 255 255
-0.1090786304366217 0.5632401312641597 0.2200869822704115 255 255 255
-0.3244046434532241 0.5110298299548197 0.2035420675745057 255 255 255
-0.3121452575007244 0.5465857001664510 0.1128572299564429 255 255 255
-1.3012420360295600 0.0199598383193029 0.8797393095796906 255 255 255
-1.2724411224738095 0.0987744025542881 0.8108344186518304 255 255 255
-0.3227074820512741 0.5423931148704825 0.1284252689559146 255 255 255
-0.1202216992808145 -0.0275162413914044 0.8120444423896728 255 255 255
0.0745308886383591 0.0018115153958015 0.8245161774591936 255 255 255
-0.0371839054715037 0.0531851797128028 0.8512390008949514 255 255 255
-1.7269839094105142 0.1825424425337724 0.8998458431154321 255 255 255
-0.9376172707665753 0.1854646304029414 0.2054447460821582 255 255 255
-1.0294405849037085 0.3944840945698264 0.8885382677672313 255 255 255
-0.8374758234302626 0.5693477156718492 0.3991057904612449 255 255 255
-1.0230079066050386 0.5702177170990135 0.1709538403844532 255 255 255
-0.6211816847962046 0.5317962683195254 0.1706086302767558 255 255 255
-0.4650814979357909 0.4944899800869546 0.1697273292553421 255 255 255
-0.5935952161093612 0.5686260805062733 0.1468145685357989 255 255 255
-0.6473092882660985 0.5924710533189481 -0.0006291941165042 255 255 255
-0.1417762833292660 0.4836429334176999 0.1549910605958766 255 255 255
-0.4657851041399330 0.5958689969067361 -0.0886736756599174 255 255 255
-0.3582100820038477 0.5950194559681856 -0.0899421485663301 255 255 255
-0.2586402420147875 0.6348714553161188 0.0667553214652634 255 255 255
-0.3197810867315118 0.5963033634631163 -0.1322861920719198 255 255 255
-0.3145263868130224 0.5972592173485882 -0.1279659206001451 255 255 255
-0.2866861035876453 0.5939690987048332 -0.1749378622242999 255 255 255
-0.3747639177127331 0.6004164994887118 -0.2920563340849691 255 255 255
-0.1015891040755899 0.5917664327825838 -0.0592633371088880 255 255 255
-0.5799311483917117 0.4863526028047458 0.1570140531814117 255 255 255
-0.5728978165648915 0.5639496445009629 0.1476224824652448 255 255 255
-0.4369010293662062 0.5324726772377605 0.1638491344234796 255 255 255
-0.4471951624079589 0.5658907433945570 0.0565887331866950 255 255 255
-0.4704110877446674 0.6018047599906735 -0.2041520248061053 255 255 255
-0.4304331270395474 0.6011896399871319 -0.3340751393236032 255 255 255
-0.7316931783325118 0.2333103236237055 0.2903048922964606 255 255 255
-0.7918821790131007 0.5721504027940503 0.2605062269104832 255 255 255
-0.6214473152827005 0.5458707580608981 0.2101215238728391 255 255 255
-0.7325889951538818 0.5652085623933849 0.1745333244721099 255 255 255
-0.7617550075275554 0.1803744347713361 0.3924049792667521 255 255 255
-1.0247711324838598 0.5647141413775421 0.6501612461372730 255 255 255
-1.2597378210506502 0.5594640653781454 0.1923205676188844 255 255 255
-0.4720345488395651 0.5050564195752811 0.1641982203831112 255 255 255
-0.4059094341634459 0.5953000652583142 -0.0477632523686351 255 255 255
0.0441438940460297 0.5508106616269972 0.2422032865800521 255 255 255
-0.2161876169922434 0.5921381098281424 -0.0637541617173856 255 255 255
-0.6261858070241153 0.5556864577243916 0.1667551186428251 255 255 255
-0.4773396464025070 0.5184467194288790 0.1640351345080608 255 255 255
-0.5844886758119773 0.5716882532131389 0.1460017827632747 255 255 255
-0.1398208831130422 0.5215083143533263 0.1393801694889663 255 255 255
0.0846762189349089 0.5609703014398493 0.3471660357650754 255 255 255
0.0082519982795621 0.5693278022204238 0.1860208012384819 255 255 255
-0.3974572154115622 0.6504671113424715 0.0831699081133523 255 255 255
-1.1535897778852684 0.5603488133109189 0.3632308640455477 255 255 255
-0.4542167812969624 0.4961565581252172 0.1685956580214816 255 255 255
-0.4038239325501819 0.1110930237392151 0.7255725084074609 255 255 255
-0.7615880658268335 0.1986519125986446 0.3168417682883558 255 255 255
-0.7882025002063000 0.2056960476587867 0.2398830049224290 255 255 255
-0.9683187805380236 0.5554887863276092 0.7338477227161233 255 255 255
-1.2167707651520958 0.6060093771068349 0.0460730261281626 255 255 255
-0.6049354499499153 0.5638427858370556 0.1057767120295727 255 255 255
-0.6240340092869396 0.5929356357356141 -0.0882505866700516 255 255 255
-0.4412303494316867 0.5881581483185219 -0.0105819937625320 255 255 255
-0.3826245810710345 0.5865708096245088 -0.0500988130702358 255 255 255
-1.1171568546189734 0.6020558676098956 -0.5174340340706984 255 255 255
0.1044860606727847 1.0787916319868414 1.2217694635213725 255 255 255
-0.3141216924342287 0.5926904389430065 -0.0949578216181823 255 255 255
-0.4815565835303599 0.5947606419550180 -0.2162277311079177 255 255 255
-0.4150376654711014 0.5942095752275174 -0.1731764963978506 255 255 255
-0.4026651767995357 0.5795874109712211 -0.2407280783167804 255 255 255
-0.2956462358342540 0.5951930454324743 -0.1510527115008013 255 255 255
-0.3764741759333196 0.5932742935283883 -0.2086273240823102 255 255 255
-0.3465181067424687 0.5851504835359189 -0.2272061760464738 255 255 255
-0.3528526301030240 0.5954125399564518 -0.2585592422778213 255 255 255
-0.2414827114956092 0.5937319063176796 -0.2206726303100925 255 255 255
0.1115617820498458 0.1770863038451373 0.8340265060935346 255 255 255
-0.4371270475280978 0.4842678788840546 0.1552734468624690 255 255 255
0.2594051374926578 0.5426760814348224 0.6341466518573320 255 255 255
-0.3706972160858584 1.7010836346782412 2.8347787498484536 255 255 255
-0.2834319338831531 0.5623187484549956 0.0987247762584946 255 255 255
-0.0427421890409007 0.5565070988390589 0.2003382186668008 255 255 255
-0.6251680048409375 0.6403923154771182 -0.0579025227126680 255 255 255
-0.3109628424918423 0.5892217897396401 -0.0172895815156000 255 255 255
0.1215307234647378 0.5556044533188609 0.0166694331438038 255 255 255
-0.2446849496131792 0.5976829386556828 -0.2067625100624477 255 255 255
-0.3303217838912516 0.1111153802666838 0.7748145197585465 255 255 255
0.1952988023088831 0.5407533273878300 0.6627409912374151 255 255 255
-0.2857355686822995 0.4703597341722607 0.1205558673068349 255 255 255
-0.4448977155363487 0.5919092940913598 -0.2230013039171272 255 255 255
-0.2578787275900092 0.5909906950435744 -0.2219502678293832 255 255 255
0.2449355454626291 0.0975818694419363 0.8434907101890378 255 255 255
-0.6377224312999384 0.5491355973711359 0.1095072759537067 255 255 255
-0.1470410148743702 0.4861303207123693 0.1397428949683630 255 255 255
-0.1446308095044031 0.4952566440819895 0.1338779422560714 255 255 255
-0.3160192183644895 0.5445186048404725 0.1084697440680347 255 255 255
-0.3474009117773087 0.5644071518015625 0.1080841077915471 255 255 255
-0.5872404013026813 0.5875601111066029 -0.0135757669757606 255 255 255
-0.5492550337901316 0.5912785333759283 -0.0069893741685174 255 255 255
-0.2320073134314716 0.5632630299760442 0.0446278475896240 255 255 255
-0.6019614803447546 0.4824251391710317 0.1644910025298890 255 255 255
-0.5784676455873716 0.5276604825436159 0.1765812300257521 255 255 255
-0.1797844805776485 0.5203819030386616 0.1480003645664674 255 255 255
-0.2059850618052788 0.5602691216287673 0.1323604634338973 255 255 255
0.1238678281712011 0.5467772347572382 0.1113092497804722 255 255 255
-0.1357538955330870 0.5554883389629413 0.1347261756879536 255 255 255
-0.5984027548607469 0.5551688952843596 0.1630854531396402 255 255 255
-0.6024004200628743 0.4927462437951857 0.1589661732851199 255 255 255
0.0051410396425644 0.0180511318279480 0.7530558109858796 255 255 255
-0.9298713400969301 0.5039004988443956 0.2841105251851221 255 255 255
-1.1050545074348035 0.5675275822918637 0.2390327382733126 255 255 255
-0.7944689471891873 0.5706225045739762 0.2368141508932935 255 255 255
-0.5844360648057644 0.5177694671593159 0.1566755648020975 255 255 255
-0.4381187932033301 0.5293131261427819 0.1460038718310767 255 255 255
-0.7290709408134930 0.5659346521385586 0.1046682548337969 255 255 255
-0.5094324358649127 0.5852511860622359 -0.0182814216715639 255 255 255
-0.4996181081278152 0.5904970651947150 -0.0071343994204369 255 255 255
-0.4588425169825766 0.5765640060429589 -0.0287070363206565 255 255 255
-1.4249390976273091 0.6210856754716296 -0.4070169322491104 255 255 255
-0.4908937993149364 0.5853530797446780 -0.1045367083781672 255 255 255
-0.3078251210493456 0.5858509600831576 -0.0459850671066402 255 255 255
-0.4332222871662894 0.5844483054752931 -0.1076878580190623 255 255 255
-1.1338258979164415 0.5957798758483097 -0.4017987824619773 255 255 255
0.1240967117935234 0.5594669458318706 0.0730936768501067 255 255 255
-0.1906668071312819 0.5951246747379787 -0.0080825105204545 255 255 255
-0.2373486646782301 0.5848443530566831 -0.1104653223858461 255 255 255
0.0041931619894915 0.5747934719445036 -0.0393490570837223 255 255 255
-0.4237678849474994 0.5924826188954948 -0.2592207245807776 255 255 255
-0.4497157886784823 0.5928219745504366 -0.3385303477741450 255 255 255
-0.3404035123601041 0.5871687812935829 -0.3124876511266841 255 255 255
-0.6053028854910323 0.6007642335462924 -0.4118367507716894 255 255 255
-0.2875020389695231 0.5930043505707010 -0.2935302787268972 255 255 255
-0.4834153788949332 0.5997483027216326 -0.3728789068949361 255 255 255
-0.9534381537183167 0.2381854658899513 0.9081654195587826 255 255 255
0.0381697137796815 0.5189067808200074 0.8010552781264573 255 255 255
-0.3233266570874997 0.5206306988564380 0.1549497103914366 255 255 255
-0.3261550528738522 0.7959856277414674 0.5669756299826174 255 255 255
-0.4667534077399084 0.5555539486206674 0.1626656635730404 255 255 255
-0.6477505859561353 0.5936822018039487 0.0027227976154811 255 255 255
-0.7336503529359195 0.2176713611329388 0.3494802279385567 255 255 255
-0.8154597918346577 0.2937675397682290 0.5333680963389544 255 255 255
-1.3601461026625179 0.6017759910855860 0.0420338769768467 255 255 255
-0.5867612731597123 0.5569669795629584 0.1821258336877669 255 255 255
-0.7353448705311760 0.5656907975787098 0.0662197442423356 255 255 255
0.2582793225913009 0.5462991683967773 0.4422184940931119 255 255 255
-0.1370862781039613 0.5582359112713196 0.1332946385803959 255 255 255
-0.2803617529888943 0.5497729584430855 0.0181708626583477 255 255 255
-0.6048398775255022 0.5672280563821253 0.1863013149096204 255 255 255
-0.4481808049168522 0.5466342416421535 0.1215149095339720 255 255 255
-0.1494082757704379 0.5637091268329648 0.0570503885693308 255 255 255
0.1259901921715962 0.5595855118768824 0.0312611336772548 255 255 255
-1.5325986586939555 0.1352380389385642 0.8923627115112058 255 255 255
-0.6443141647306551 0.5655460277121855 0.0709024415656252 255 255 255
-0.4918894334351449 0.5696348523625369 0.1544630094527792 255 255 255
-0.1393726411003591 0.5097556322417820 0.1351422718517038 255 255 255
-0.5038319560797616 0.5575675681482117 0.1131040173807025 255 255 255
-0.2992874139042957 0.5709730525886211 0.0447973484509852 255 255 255
-0.9870491245452864 0.2601404607461514 0.1197786266563199 255 255 255
-0.9490395150923634 0.5631968213258620 0.2667091501246563 255 255 255
-0.3280261133056376 0.5429172395141305 0.1727253944809814 255 255 255
0.0972643521242846 0.5411887795095826 0.1504931524520301 255 255 255
-0.3323937799383675 0.5840622423126443 0.1365514461940759 255 255 255
-0.1919042104977056 0.5748282042662405 0.1046417913707240 255 255 255
-1.4202421623542936 0.5980417031850687 -0.2697265170570908 255 255 255
-0.4617011332674661 0.5834342096830096 -0.0665732619124970 255 255 255
-0.5585246714616265 0.5843257081403954 -0.1053867007244529 255 255 255
-0.9189056232090227 0.4142605353532901 0.2775938410948648 255 255 255
-0.9717094588443811 0.5593924546948008 0.8558605227473532 255 255 255
-0.9041983414758564 0.4748839416458970 0.2808727916782162 255 255 255
-0.6587628753707395 0.5602406840425498 0.3612950706392848 255 255 255
-0.5685175512178855 0.5552998354738465 0.1773350950868686 255 255 255
-0.3528888557856482 0.5561955219232766 0.1949633192290312 255 255 255
-0.5841274827488085 0.5611004054584691 0.1444040447304533 255 255 255
-0.5849503688434687 0.5871199490958611 -0.0105168357387794 255 255 255
-1.2312938163765581 0.4896439817715646 0.1854895354332093 255 255 255
-0.6050561413778693 0.5585550284039629 0.1169096431343952 255 255 255
-0.3448162079687240 0.1275347153366216 0.7400987107854791 255 255 255
-0.6591500759333613 0.5596780522537417 0.3597164876799033 255 255 255
-0.9814942987582929 0.5684990550185880 0.0801560126571097 255 255 255
-0.7453689968146751 0.5601533481008035 0.1213076544583239 255 255 255
-0.6189830253559272 0.5683908914084306 0.0714766958834154 255 255 255
-0.4472625338198407 0.5599455651940175 0.0485010019820713 255 255 255
-0.1679463891700204 0.5622259353888830 0.1064520560621189 255 255 255
-0.3220502835180552 0.5796027223712263 -0.3013548182719044 255 255 255
-0.9609382491870928 0.4238680987771466 0.2911357829303292 255 255 255
-0.8999627162422911 0.4875762514347188 0.2902834329765529 255 255 255
-0.1178983233638381 0.5784187555635781 0.1360346463859111 255 255 255
-0.3371865291223044 0.5458350144045819 0.1376372885804586 255 255 255
0.0749242875402150 0.4817237692998655 0.8838846700608087 255 255 255
-0.5986156268332642 0.5401487449486871 0.1200627894462880 255 255 255
-0.1742758071290132 0.5282497621246668 0.0954184567177455 255 255 255
-0.1293985810526717 0.5298504889577884 0.1167688527859867 255 255 255
-1.0942896971727987 0.5637231399755624 0.4399171935354649 255 255 255
-0.6457980170819446 0.5580496080060859 0.3884575093346947 255 255 255
-0.2680435826083349 0.5922216529615724 0.3612357758331167 255 255 255
-0.7976850697910072 0.5659075615407030 0.1966690950319734 255 255 255
-0.3232067451542766 0.5513428445549713 0.1589700447661592 255 255 255
-0.4825570726807891 0.5512313659317387 0.1219655440346528 255 255 255
-0.9789804365957252 0.5484461030259538 0.0813359541285195 255 255 255
-0.3272065727083093 0.5540695997818728 0.1441156278793128 255 255 255
-0.5980857370199085 0.5657688066542228 0.0922821614963345 255 255 255
-0.3335667285859665 0.5492242847156197 0.0624700328123804 255 255 255
-0.3133460729617861 0.5808939581883314 -0.1427412451355901 255 255 255
-0.8198355366222179 0.5904050656211233 -0.2592142988188195 255 255 255
-1.7141490631485998 0.4422443792883685 0.9203758075808598 255 255 255
-0.6190461439076630 0.5059039171520152 0.1659189096414967 255 255 255
-0.7288229642403122 0.5610070480685017 0.1680995787965034 255 255 255
-0.7549254531634282 0.5596899934631991 0.1312913608742616 255 255 255
-0.4772826941571781 0.5721976628302645 0.0828355984060050 255 255 255
-0.2330019768396990 0.5608233828946926 0.0731201982438361 255 255 255
-0.5143180004122450 0.8006891989046016 0.8341121145411967 255 255 255
-1.0531929590720142 0.5769022076488493 0.1644124873719068 255 255 255
-0.5378712868708446 0.5611502972994151 0.0863950894083640 255 255 255
-1.2908137714073309 0.1605342000043322 0.8816938568978649 255 255 255
0.0794862579134517 0.4287198660372429 0.9085949797360149 255 255 255
-0.3245065160659608 0.5188209053979403 0.1584824127794118 255 255 255
-0.7226869888377790 0.5587455547619993 0.2108415426924242 255 255 255
-0.5899864907067309 0.5725283802656327 0.2027972805895364 255 255 255
-0.7414818488360087 0.5603327269297242 0.1264323611692006 255 255 255
-0.2600739184654129 0.5801664224589153 0.1880312008107746 255 255 255
-0.3178330197345545 0.5265574073596990 0.1772629833518784 255 255 255
-0.2900466896852645 0.5088953008159458 0.1303629230092841 255 255 255
-0.3722749992442174 0.5371272691752946 0.1408676382694108 255 255 255
-0.5927236357823057 0.5573884084517187 0.1631752814175460 255 255 255
-0.4582939236323966 0.5591357925310234 0.1561233069824208 255 255 255
-0.4298061241167066 0.5627207584915074 0.1326689364459532 255 255 255
-0.5064811598657870 0.5859636732020479 -0.0192336573400255 255 255 255
-0.5825614440931129 0.5689478215407577 0.1432446300533314 255 255 255
-0.7033508741143879 0.5618103288479692 0.6698181824915057 255 255 255
-1.2330255075062597 0.4903501284799159 0.1916170555681802 255 255 255
-0.3016218114224321 0.4876112178163189 0.1497423417705881 255 255 255
-0.9630290303406879 0.4664102963877054 0.2539034823879314 255 255 255
-0.4639911067100789 0.5525543973656114 0.1548644659820888 255 255 255
0.0754033931793319 0.3744007296143921 0.8768170901321151 255 255 255
-0.4874389280167446 0.6002636648447439 0.2212362450763091 255 255 255
-0.4712607426975359 0.5782461657710152 0.0567250693652536 255 255 255
-0.5911324949889787 0.0808685165617785 0.8944474476656334 255 255 255
-0.8972604239675133 0.1294888622029675 0.3815175102908075 255 255 255
-1.0277580941350912 0.2758282301683167 0.1723666482184660 255 255 255
-0.5897014035963848 0.4742122418298010 0.1535541367278029 255 255 255
-0.3464358969908465 0.5951617817600197 0.1624000606782268 255 255 255
-0.8612297272570520 0.5631950165199862 0.1182538982342050 255 255 255
-0.5359476636777046 0.6059500364206233 -0.1527344861370789 255 255 255
-0.8064693986251426 0.5910479250665948 -0.2142827428159912 255 255 255
-0.3824978202370659 1.2668592994133234 0.6148814417995392 255 255 255
-1.0393386261125828 0.2920608160652636 0.3054184877700603 255 255 255
-0.7120673606924238 0.5897783717860253 0.9925833398354391 255 255 255
-0.8663199688684231 0.5592923555468789 0.5304224531813628 255 255 255
-0.1457524011224260 0.5594881607879030 0.0790121847057117 255 255 255
-0.6827886926588862 0.5677827903987445 0.4815302962748671 255 255 255
-0.7943881519764600 0.5669229379960085 0.2539875365038031 255 255 255
-0.6101650244462464 0.5845689281170008 -0.1012566730293587 255 255 255
0.0884202815948374 0.3787137905728550 0.9195091384333516 255 255 255
-0.4706284154722304 0.4886367511992974 0.1652027710081383 255 255 255
-1.0611027156823571 0.5882371874354539 0.5005345143167126 255 255 255
-0.7404021354080155 0.5605240502854989 0.1901812280988096 255 255 255
-1.0834671014479040 0.5669034313720458 0.2106071032664660 255 255 255
-0.3202558635260740 0.5732589669839825 0.1281412355736181 255 255 255
-0.3196428426697896 0.5650608151894326 0.0576605115512961 255 255 255
-1.2354155624432055 0.5663856423583331 0.1361440828555729 255 255 255
0.0466082783246460 0.4218633732796977 0.8281073094545661 255 255 255
-0.5819383195380325 0.5151510720474508 0.1464973936492902 255 255 255
-0.4511398163343143 0.5531732494424579 0.2091392143174176 255 255 255
-0.3148366301133678 0.5584565773142678 0.0812789069476778 255 255 255
-0.1356736617297034 0.5489167927758971 0.1353752125874584 255 255 255
-0.4195951041046045 0.5821097557813674 0.1009131339522020 255 255 255
-0.4217080933887987 0.5541521502180897 0.1444093677283220 255 255 255
-0.3001454413703724 0.4960706968432318 0.1531477498926508 255 255 255
-0.4155898114016239 0.5576305130334092 0.1460765604532142 255 255 255
-0.9665044773184288 0.4717143574645850 0.2857885017922790 255 255 255
0.0473962663618075 -0.0187269113374464 0.7780014394752959 255 255 255
-1.2220939459865539 0.5563263607568586 0.7451584818278402 255 255 255
-1.0655499547427163 0.5520113781872419 0.6918865458671657 255 255 255
-1.0682835891088871 0.5572830969008775 0.6118208941322294 255 255 255
-0.4403990757761720 0.4746089668568584 0.1533422833958604 255 255 255
-0.9086657587802865 0.5373942145836497 0.4227343198086846 255 255 255
-0.6489160074007216 0.5579969637058930 0.3650974935968918 255 255 255
-0.7184330329616149 0.5592481707747066 0.3380247508155509 255 255 255
-0.2029293103478316 0.5674093410336366 0.1495673728321053 255 255 255
-0.5914556109778202 0.5604447444373849 0.2119832791137077 255 255 255
-0.5932235397991603 0.5693225213950104 -0.0417863409310881 255 255 255
-0.8078241756061865 0.5831138337465820 -0.0223214504290654 255 255 255
-0.7130546168259571 0.5638046442916976 0.8697973122379031 255 255 255
-0.2901472707395059 0.5228619841450938 0.1390576385312274 255 255 255
-0.2940273460354778 0.5586427612632150 0.0615980996676855 255 255 255
-0.4830245188878003 0.5699294116746807 0.0787994789578019 255 255 255
-0.6087537524417836 0.5530688201315366 0.3999992197353812 255 255 255
-1.3292986361264056 -0.0385448162480668 0.8094861223450431 255 255 255
-0.7840427847036203 0.1577294203390873 0.3994391868760241 255 255 255
-0.9780971493139519 0.5623768129368196 0.6952595036962874 255 255 255
-0.2880350819154089 0.5646037986164441 0.1628630701805340 255 255 255
-0.6207866599999520 0.5594031789164565 0.0508368170226334 255 255 255
0.0679738076582765 0.4017762503026474 0.9248438917456028 255 255 255
-0.4247306605441876 0.5590492575077248 0.1446381716206604 255 255 255
-0.2898397635113729 0.5613173605149169 0.0617299777491505 255 255 255
-0.1486934999083060 0.4905973589994779 0.1509454773911756 255 255 255
-0.2346294095244510 0.5461461020504720 0.1448309052891583 255 255 255
-0.6661745207952960 0.5703930664909338 0.1417803564585745 255 255 255
-0.7387796926307697 0.0334113574807289 0.8135839055240472 255 255 255
-1.0272211063215479 0.4079095702573774 0.8917974603048862 255 255 255
-1.4856734362471666 0.5537257559078244 0.8344435321432719 255 255 255
-1.4665487778676281 0.5511272429197297 0.8118948583630421 255 255 255
-0.5925914579437980 0.5635205355310015 0.4299554312901142 255 255 255
-0.1450560903971861 0.5379976441262895 0.1327412103309817 255 255 255
-0.6655486724612976 0.5567892513377948 0.3353962725303479 255 255 255
-0.3806293729551413 0.5148443129636746 0.0444257075609471 255 255 255
-1.1098282354844338 0.5579052239237970 0.3610917847170589 255 255 255
-1.1062732447502737 0.5589345322475405 0.3445815837699320 255 255 255
-1.0467099045452706 0.5685782996457083 0.2413682657109746 255 255 255
-1.0285519171773649 0.5842793479752078 -0.0588158692354828 255 255 255
-0.8540072198329133 0.5909187549492479 -0.1341493076437719 255 255 255
-0.9643706850088651 0.6320892384021219 -0.1567241970434924 255 255 255
-1.0705984811001912 0.5642982784481374 0.8793208791146760 255 255 255
-1.2070978713011624 0.5660551803888174 0.8833785361611888 255 255 255
-1.2532311964094847 0.5550240248466540 0.6204455366000268 255 255 255
-0.6066354608915354 0.5592071485532850 0.1676753095308943 255 255 255
-0.7974684144925317 0.5626917964127978 0.2117811093317208 255 255 255
-1.4927772013054865 0.7233807596793811 0.8226551416471917 255 255 255
-0.2955980420801004 0.5712939416591685 0.1135864922753478 255 255 255
-0.5935804085290458 0.4809184806493151 0.1633217687392820 255 255 255
-1.0974140114405961 0.5514360969129939 0.5965456957049646 255 255 255
-1.0690139942424992 0.5543252027103425 0.3996013613358299 255 255 255
-0.4769041821037652 0.5718142710242313 0.0783523869327718 255 255 255
-1.3414506898120830 0.5594377606561243 0.1925113324226904 255 255 255
0.0431930820558044 0.5278685471808604 0.9275685269099867 255 255 255
-0.9877091098530340 0.5638268004725947 0.8328347201806503 255 255 255
-0.6175049651721558 0.5482100810584893 0.1471184157540879 255 255 255
-0.8860860027808366 0.5892771892215534 -0.0087649568866643 255 255 255
-0.0929310594874995 -0.0022271144132825 0.6903598709840970 255 255 255
0.0767920420789707 0.5186254416192702 0.8155044397310718 255 255 255
-0.6017468213005812 0.5188590063870167 0.2252444603282927 255 255 255
-0.2243322103966792 0.4513657835634006 0.1423248500984502 255 255 255
0.0963223875133465 0.2535734171924617 0.8738248772252106 255 255 255
-0.7661524672511497 0.5565647527132453 0.8075900516949517 255 255 255
-0.8577676045046676 0.5521017155688179 0.5759459245229550 255 255 255
-0.7347736558684712 0.5601311943438489 0.4983889452321755 255 255 255
-0.1061865766421715 0.5625212452875892 0.0699931852236622 255 255 255
-0.4533875897922579 0.5784542596163822 0.2741186413143901 255 255 255
-0.7400562252657832 0.5529407463793576 0.2202602375637436 255 255 255
-1.5961602555308816 0.5492666048431976 0.7471279122107113 255 255 255
-0.6472415693581870 0.5612214324900776 0.0995835520406458 255 255 255
-1.0220474820043819 0.5667886332304635 0.3254369886673594 255 255 255
-0.8884025932867452 0.5818332895296141 -0.0236615741574120 255 255 255
-0.8030070230465757 0.1571987198217735 0.2833906619566255 255 255 255
-0.8543174001687461 0.5550106144095004 0.5801442445260534 255 255 255
-0.6025836666261402 0.5577873960779396 0.4152728225020077 255 255 255
-0.9106177093721805 0.4761993565475495 0.2576505761608043 255 255 255
-0.3037541819985978 0.5745410248820320 0.0628321389040765 255 255 255
-1.3373223493794555 0.5545353516868374 0.6715967159082084 255 255 255
-0.7369713687160638 0.1377540870554490 0.7080517698626982 255 255 255
-0.9010440587232595 0.4684776788607152 0.2846455068496760 255 255 255
-0.8552611800154697 0.5513499383052851 0.5777348526547641 255 255 255
-0.9672813514151049 0.5587996903114818 0.6103620076104672 255 255 255
-1.0852497817838138 0.5448574204586727 0.6057289159596095 255 255 255
-1.3434714825212208 0.5470101990628988 0.6582680310510511 255 255 255
-0.4367776728727508 0.5573449110136703 0.0939816365271446 255 255 255
-1.6977109848759115 0.5307393899032786 0.8309236762569565 255 255 255
-0.5993977166485602 0.5653907067979280 0.1733749843617982 255 255 255
-0.4387403423634311 0.5583706819307996 0.0409421302782862 255 255 255
-1.3495058306545555 0.5538292361094701 0.6296969539316493 255 255 255
-1.1492714919625009 0.5547974223615658 0.3354720733999693 255 255 255
-0.7878093308659935 0.5673836829532757 0.2215618716959931 255 255 255
-0.3211635942653207 0.5660478448617631 0.0556406958230839 255 255 255
0.1067454518817940 0.2173438684912296 0.9334891432904011 255 255 255
-0.0882825946116406 0.5747615745399040 0.1035368200315910 255 255 255
-0.6394045757188085 0.5527606798245004 0.3789050360491402 255 255 255
-1.3126822654840353 0.5528519348871335 0.6883976323601217 255 255 255
-1.4695603843853862 0.5488134869047121 0.8103073214089651 255 255 255
-1.1097584033302976 0.5522007375404767 0.4661461091311732 255 255 255
-1.2264191884604454 0.5489430568297543 0.4714497131224415 255 255 255
-0.9145593345054532 0.5756117771616953 0.2211093783769353 255 255 255
-1.5439286312288079 0.5501987644916525 0.6512690920960527 255 255 255
-1.4844607054801640 0.5523694790616696 0.7081731104562516 255 255 255
-1.2337981300277390 0.5492303161007763 0.6468632725016370 255 255 255
-0.2482771385384993 0.5522335845512212 0.0252915428758086 255 255 255
-0.5749015538054572 0.5640747666858128 0.3480547998101677 255 255 255
-0.9732409299441320 0.5540172813674835 0.7210504975865160 255 255 255
-1.0118620400985421 0.3876365794251244 0.8643193163947629 255 255 255
-0.8396125816948370 0.5564222732294759 0.7341991846739120 255 255 255
-0.9688908731926941 0.5561427342694787 0.7279810151970928 255 255 255
-1.2470504015402546 0.5245099285408652 0.7297535277115910 255 255 255
0.1416442877117462 0.1847337611057308 0.8473852282049823 255 255 255
-1.3325552874330300 -0.0010938658337374 0.7950351742334413 255 255 255
-1.3240080101904441 0.0119102089982939 0.8049195456481137 255 255 255
-1.3631569959996113 0.0142226005584462 0.8606176911268020 255 255 255
-0.7791184172554166 0.1767728045097501 0.2961528839619327 255 255 255
-0.7241204141592141 0.1921175323858407 0.2342569622622690 255 255 255
-0.7598324077233587 0.1954163661730192 0.2696508546619144 255 255 255
-0.7339452848712688 0.2092926018942687 0.3453903005448796 255 255 255
-0.7500534898922659 0.2233233384515107 0.3813005841226261 255 255 255
-0.7457634680593229 0.2434207734876460 0.3347731646511117 255 255 255
-0.7321463316225136 0.2544505746021837 0.3127241341309842 255 255 255
-1.7152710471681982 0.1799154641762802 0.8933318793826182 255 255 255
0.1990221716247086 0.2320595690153505 0.8494580281981232 255 255 255
0.1524324353544725 0.2285717192496404 0.8511166038716906 255 255 255
-0.2364010684540090 0.1115245503535457 0.8447559473848676 255 255 255
-0.9048324617283259 0.1056117887799767 0.4501522404389210 255 255 255
-1.2683666120552148 0.1060780681736454 0.7683547625641656 255 255 255
-1.2444999661264124 0.1154159114448611 0.7780882850140798 255 255 255
0.2015316780587766 0.4009988584125668 0.8502674539704838 255 255 255
-0.7305171229352674 0.2221204412414379 0.2893576938013823 255 255 255
-0.9222087589060816 0.3620607881161174 0.2918367670442170 255 255 255
-0.7182326339986237 0.2233277094452222 0.2907932103220284 255 255 255
-0.8273791837973159 0.1460355218311319 0.3355408781684414 255 255 255
-0.7489893578070306 0.2002407279082528 0.3314545557928458 255 255 255
-0.7350044356396814 0.2313713776947698 0.3178402095032073 255 255 255
-0.0330682209604598 -0.0139578094776450 0.7451092789630955 255 255 255
-0.0301104199074427 0.0267471143348934 0.8134379601436770 255 255 255
-0.1578869768832485 -0.0334220093434933 0.7935480826327992 255 255 255
-0.1193531421262041 0.0216014913846128 0.8508272816664681 255 255 255
0.1508911195073794 0.1535447294790774 0.8473104933143962 255 255 255
0.1253360307284248 0.1569100618946491 0.8487622804942381 255 255 255
0.1475759796780374 0.1806677778277892 0.8492216854841694 255 255 255
-0.1631037564135148 0.1185616548158535 0.8454115034780938 255 255 255
-0.6990022476080540 -0.0058640637919353 0.8147900973035164 255 255 255
-0.7111048734937014 -0.0027995675274813 0.8657719318335649 255 255 255
-0.6933391439629824 0.0103735057859875 0.8007739145059851 255 255 255
-0.7222209014895036 -0.0000266225360495 0.8369707564403956 255 255 255
-0.7163204149262747 0.0017844459962765 0.8524591508410955 255 255 255
-0.3494561989878466 0.1180350015962728 0.7613154041902437 255 255 255
-0.3525119836367878 0.1224119675686315 0.7694132321250260 255 255 255
-1.0113410752979726 0.1005768488820910 0.1888528057954526 255 255 255
-0.7720983669236730 0.1814063239533024 0.2538214697895639 255 255 255
-0.7029160305742740 0.2255530889033596 0.3081788889115263 255 255 255
-0.7542364076083552 0.2297140803326314 0.4055583077164021 255 255 255
0.1190425409925202 0.4031321002448633 0.8603936518467163 255 255 255
-0.7167429003863637 0.4075539121347441 0.8626614318051927 255 255 255
-0.5797936994385953 0.5427402380195201 0.1597277511189916 255 255 255
0.2196469167176217 0.1239640312692749 0.8448582056629830 255 255 255
0.1576211963345562 0.1575792539050651 0.8478017334115617 255 255 255
0.1524572650532872 0.1734599811715313 0.8488422826859594 255 255 255
0.1189065752469836 0.1761059205321573 0.8500813670685887 255 255 255
0.1649813897576205 0.2009640072131161 0.8494947571809546 255 255 255
-0.3365567518102619 0.1190798172400974 0.7566731742112509 255 255 255
0.1616220165884057 0.2687971466267934 0.8529689202009588 255 255 255
0.1240345400768716 0.2698829993045280 0.8532967575015811 255 255 255
0.1145511822826020 0.3520798299673964 0.8562536336989729 255 255 255
0.1034628236218973 0.3755632578664956 0.8525244864774200 255 255 255
-1.0307061156819317 0.3408809043583300 0.8799874092440025 255 255 255
0.1347006052722053 0.4227667882613874 0.8579390082228080 255 255 255
-0.6001252052847912 0.4608482912927827 0.1540699408953051 255 255 255
0.0653751077999964 0.0550278127840853 0.8481325747474067 255 255 255
-0.3210376238203128 0.0546112249096426 0.7188129712408144 255 255 255
-0.3500449182996889 0.0977979594410802 0.7588839067693510 255 255 255
-0.7134529245784051 -0.0025465951101316 0.8028977420231076 255 255 255
-0.3567253074704300 0.1191469162426000 0.8050720899098005 255 255 255
-0.3536967000969998 0.1249024963325773 0.7828594385037357 255 255 255
-0.7651950434062071 0.2502498576402044 0.3359301094434207 255 255 255
-0.9044585198800222 0.4725172283324248 0.2850162883339332 255 255 255
-0.6855877062223650 -0.0466155388136431 0.8083400977215165 255 255 255
0.1524534276535109 0.2286214986705004 0.8509700235653179 255 255 255
-0.3637926693122343 0.1236999546535201 0.7537600770690808 255 255 255
0.1781396560819583 0.2653040183941325 0.8521144638979987 255 255 255
-0.3601269971082717 0.1097188924778054 0.7890212306900342 255 255 255
0.1137833275011704 -0.0555942150024142 0.7736920916862822 255 255 255
-0.0184673246194103 -0.0489126174737646 0.8862467802745055 255 255 255
-0.1389827377153706 -0.0207701612098878 0.7458913607308834 255 255 255
-0.1344098848100459 0.0238259519024897 0.8197379862252268 255 255 255
0.1010913569752653 0.1458960384465062 0.8479817145610322 255 255 255
-0.6841500023204750 -0.0210736328986687 0.7620312492561014 255 255 255
-0.7016122353683463 -0.0091719278499923 0.7666781243592198 255 255 255
-0.7038551169409697 -0.0009202161358861 0.7815603330629872 255 255 255
-0.7132675680199424 0.0001393947995285 0.7789396310769383 255 255 255
-0.7005562820083602 -0.0040013463088880 0.8684602400551958 255 255 255
-0.7212803023692167 -0.0055457309007201 0.8429922359302342 255 255 255
-0.3357041477604774 0.1023301977677744 0.7803776821861126 255 255 255
-0.3553899171729156 0.1340356905660754 0.7917109681894032 255 255 255
-1.2689611712901590 0.0996170801517334 0.8506931809580749 255 255 255
0.1975819686557760 0.3487271897044308 0.8504775919316030 255 255 255
-1.0341650101934647 0.2724015618985535 0.8956201330930476 255 255 255
0.1604691766712910 0.5163969708582554 0.8726608939635435 255 255 255
-0.7475615450656576 -0.1078906412010090 0.8708505439166352 255 255 255
-0.3596916053383201 0.1147719414406339 0.7569670029916664 255 255 255
-0.3592961669742091 0.1264779701404270 0.7653214016253378 255 255 255
-0.3564231149726176 0.1253167369111803 0.7983156104050648 255 255 255
-1.0347960489526982 0.3811257515387205 0.8838787464439513 255 255 255
0.1916371265822740 0.4874397746625445 0.8690263663915614 255 255 255
0.2041721572805930 0.4878385628964892 0.8682982221160647 255 255 255
-0.7057966876284403 -0.0111998116582686 0.7704338605369316 255 255 255
-0.7189839803472957 -0.0014163276590401 0.8506286645480362 255 255 255
-0.7141261280206526 0.0134063629749069 0.8182942102947917 255 255 255
0.1885970728867984 0.0369557459328844 0.8389192742974487 255 255 255
0.2290986337719891 0.0814338833609484 0.8414379599487731 255 255 255
0.2094835411046854 0.1325291616094784 0.8445285577656756 255 255 255
-0.3586903613843766 0.1131477981291628 0.7559895311116117 255 255 255
0.1726766761817999 0.3405735884269866 0.8594194072376933 255 255 255
-0.2966789326933811 0.1196732114549073 0.8680182419943511 255 255 255
-0.0288019752062272 -0.0049258757119792 0.8285104972196247 255 255 255
0.2487033661317645 -0.0137394480734743 0.8458388247661113 255 255 255
-0.1335453719510321 0.0171645311632166 0.8488850537758088 255 255 255
0.2358590462440670 0.1210651562442997 0.8443524491745413 255 255 255
0.2457260388182815 0.1375658053352915 0.8441918956856038 255 255 255
-0.3122705936081009 0.0433758956267829 0.7862918901696436 255 255 255
-0.7014975814378589 0.0012669617346545 0.7985603357106165 255 255 255
-0.7250320257997072 0.0065264522999200 0.8668505456823115 255 255 255
-0.3502112385937044 0.1204856726932822 0.7813904024572007 255 255 255
-0.3712822066418688 0.1329347563251155 0.7706632689939781 255 255 255
0.2844692816265074 0.2266604432061459 0.8522193453155139 255 255 255
-1.2987162787704172 0.1251942612584973 0.8747523771161481 255 255 255
-0.7511764368604319 0.2524351519319025 0.3120487508289714 255 255 255
-0.0331416327451149 -0.0173881305808653 0.7998651613979271 255 255 255
0.2692340938814967 0.1100462743162892 0.8455683777434313 255 255 255
-0.3378643812699609 0.1028150330698256 0.7791484538680473 255 255 255
-0.7603811166032362 0.1602022321146114 0.2491692064021498 255 255 255
0.1456118714231395 0.5657911434300784 0.4043851080980120 255 255 255
0.2458413172677377 -0.0232249782692712 0.8322303367410051 255 255 255
-0.1410306072405106 0.0029762184806188 0.8155528101970964 255 255 255
-0.3499333383944996 0.1169456812088747 0.7738851448726651 255 255 255
-1.0291655249468945 0.3797565392602250 0.8800264570288323 255 255 255
0.1543206812354362 0.5696875721306573 0.8818445666599080 255 255 255
0.0314144207234301 -0.0277445968577304 0.8018508231176822 255 255 255
-0.6737670066063952 -0.0236149721099188 0.8680111167518541 255 255 255
-0.7015396509268620 -0.0036058976977573 0.8701710185490965 255 255 255
-0.9869667333889591 0.1449188015484726 0.2282204329260589 255 255 255
-0.3816246481647171 0.1168122212709205 0.7601803911054971 255 255 255
-0.7829144524796883 0.1862575642628462 0.2516626479405275 255 255 255
0.1886919500831680 0.1863610894495379 0.8479162188638636 255 255 255
-1.0255214824048771 0.5722586436605831 0.3396896676235668 255 255 255
-1.4139882239430559 0.5917795664285834 -0.0123861923333504 255 255 255
-0.8021759201204516 0.5735327105808803 0.2442119278371355 255 255 255
-0.4401643439792458 0.5364338524122301 0.1399047677394042 255 255 255
-0.9115290724941901 0.5556823266694879 0.7499701745913487 255 255 255
-0.6096716140592054 0.5388880061616543 0.1442122519005613 255 255 255
-0.4254854890624071 0.5587241781358194 0.1598437234697281 255 255 255
-1.0196113101918667 0.3826657347804812 0.8696734883466163 255 255 255
-0.3866020733727336 0.0368852325641202 0.7264837070989205 255 255 255
-0.3230165572995299 0.1021892161908027 0.8381683004628659 255 255 255
-0.1052022460511506 0.5490333089449629 0.7855172002622260 255 255 255
-0.9178727279747932 0.5754884502757492 0.2182126975839624 255 255 255
-0.4044762781078562 0.0135943974762991 0.8483355791995262 255 255 255
-0.9829558243411852 0.2972622816432559 0.3416768303020795 255 255 255
0.0512441398567238 -0.0208304440564465 0.7859649002581368 255 255 255
0.0983652222471070 0.2206336403387299 0.8904364895603134 255 255 255
0.0964210025381359 0.2724493056972351 0.8742926869222689 255 255 255
-1.7366793156458762 0.5353586789066156 0.9662259574750394 255 255 255
-1.3440101121113770 -0.0013794919481747 0.8240881250982053 255 255 255
-0.4272422850209595 0.1059513869029007 0.8616357924916827 255 255 255
-0.9253725418072472 0.4545383658054289 0.2651290780859861 255 255 255
0.0933017850443119 0.5357464165066272 0.8521309437175901 255 255 255
-0.2601050829904492 0.5665674764922941 0.1653806896986412 255 255 255
-0.0917999401146720 0.5670036387829895 0.1483550930120494 255 255 255
-0.1395701489707957 -0.0089368140086190 0.8311474559066312 255 255 255
-1.4985629208073745 0.1319847392319462 0.8472292363207448 255 255 255
-0.9296710412959582 0.5407423909810583 0.2736342240727730 255 255 255
-0.9381232115376837 0.5326378764931374 0.2788173329414095 255 255 255
-0.0932037938562846 0.6790226184097607 1.2915026565468013 255 255 255
0.2284836722365082 0.6863894216823636 1.2445087401439565 255 255 255
0.1705185321449181 0.6991859685676692 1.3015531350122744 255 255 255
-1.3195472917400899 -0.0220838575028549 0.7889919500749019 255 255 255
-1.3328025488649988 -0.0123374455057519 0.8112045860335542 255 255 255
-1.3368779490181608 -0.0089563710737414 0.8819060244304722 255 255 255
-1.3465172912052712 0.0070170359756287 0.8797366968865467 255 255 255
-0.7616727030490276 0.1415832202797309 0.2797510534413457 255 255 255
-0.7365175197544811 0.2250417354235255 0.2984424119107496 255 255 255
-0.4432030243241892 0.4648365251294148 0.1634762015833245 255 255 255
-0.6086670304955271 1.1980830536486113 1.1122540642072494 255 255 255
-0.1192440492164963 -0.0108112757032388 0.8727584124253411 255 255 255
-0.9372288327398337 0.5226687220351743 0.2694063320542659 255 255 255
0.0950648106554661 0.2705650694556549 0.8852795653919108 255 255 255
0.3568090660537315 0.6845019385907714 1.2625010773905050 255 255 255
-1.0316611269453790 0.2664866905085302 0.1668712257964904 255 255 255
-1.2766859659427121 0.1554755019886369 0.8418244155644068 255 255 255
-1.2621316679893708 0.1617199137086605 0.8388494616991018 255 255 255
-1.2621186082054807 0.1597463036158171 0.8559014436980696 255 255 255
-0.7166293302509512 0.0027194520915413 0.8708665082545499 255 255 255
-0.4693686681085696 0.0881067981797876 0.8352886578630092 255 255 255
-0.4586134494083274 0.0898526381328280 0.8478663620743063 255 255 255
