ply
format ascii 1.0
element vertex 680
property double x
property double y
property double z
property uchar red
property uchar green
property uchar blue
end_header
-0.8854748314753724 0.2636372222725445 3.1896335201763737 255 255 255
-0.5203388245053482 -0.9639511057397745 2.9749903158317785 255 255 255
-0.1112443074888952 1.0477433762889925 2.6120362516339983 255 255 255
-0.6349066338392895 -0.6531194719803821 2.6324354642064414 255 255 255
-0.6789001560943291 -0.5007586838983906 2.7081814815749397 255 255 255
-0.7395494627895580 -0.3262525937446163 2.5513702042685864 255 255 255
-0.7375595553472181 -0.2409415183998971 3.0111011340850382 255 255 255
-0.8171498450892027 -0.0544113479999622 2.6949790828880698 255 255 255
-0.8221110134932452 0.0380868450058580 2.8276028086659633 255 255 255
-0.6321177547504053 -0.6916435410509707 2.4679783235443065 255 255 255
-1.6949090636990034 -0.4843454646166920 2.5609441269252375 255 255 255
-0.6109266287614616 -0.8796926906292697 2.2031603414584993 255 255 255
-0.6473565836259509 1.0009752909658525 2.6955639929704613 255 255 255
-0.5934756568716253 -0.4984886760863478 2.2504503984839488 255 255 255
-0.9515695997395142 0.4306695317641243 2.9512772904965914 255 255 255
-0.9463456466907889 0.3449047769568088 2.6857469766161390 255 255 255
-0.6575258571454895 0.6984040465296429 2.4839887769982933 255 255 255
-1.1719652807660310 0.0674518952861209 3.6163082897854508 255 255 255
-0.9857013057704558 0.4573048113843401 2.6033795344291892 255 255 255
-0.1358871598949090 -0.3398363682275011 2.1826063422380630 255 255 255
-0.6885500465619430 -0.1472064951109195 2.3426733862822413 255 255 255
-0.4736476515319621 0.0278928066794798 2.3659046832018396 255 255 255
-0.6727084565873698 0.0953393067906985 2.4201210291911064 255 255 255
-0.5904082853283181 0.3812938569976095 2.4923841480290165 255 255 255
-1.2137615139069595 0.5374703398172413 2.2885870864472002 255 255 255
-1.2248446983294792 0.6136295072870149 2.2697281432931558 255 255 255
-0.3158062819187712 0.7300298444305562 2.5784773137700601 255 255 255
0.0922694862081490 -0.1267935772242073 2.2063655899114800 255 255 255
-0.1307253494268253 -0.2274528968603750 2.2234178713206560 255 255 255
-0.0487410497117711 0.3391635423764892 2.3861841926345111 255 255 255
-0.1587029200450154 0.4102790402055128 2.4000395130346996 255 255 255
-0.5722189448243786 0.3493335672185116 2.4778710154447472 255 255 255
-0.1603374612418449 0.4991818107509101 2.4604335856254309 255 255 255
-0.3989373573608530 0.5434940555144658 2.5272237423747868 255 255 255
-0.4725802813613900 0.5429088520936602 2.5324879765287651 255 255 255
-0.6381759211654794 0.3542781649801978 3.1782954478801759 255 255 255
-0.5104817872305247 0.6497431074060720 2.5784721692736490 255 255 255
-0.3062256882234786 0.7162989618750002 2.5608022408581821 255 255 255
-0.2794081120807808 0.7454998345114840 2.5608137140905534 255 255 255
-0.3519181256144718 0.7806935412593521 2.5517351045838490 255 255 255
-0.3542850095177418 0.8057892176785445 2.5827084376213811 255 255 255
-1.2436018828664801 0.6917038989495921 2.3078392857953656 255 255 255
-0.4430892329111181 -0.3812061143939300 2.2135493736235610 255 255 255
-0.2108977446144591 -0.0188442569017788 2.3219870164868253 255 255 255
-0.4376494938535980 0.5425421015628216 2.5233755820059454 255 255 255
-0.2782143309561600 0.5938727612518315 2.5160570102708837 255 255 255
-0.1998732784914115 0.6406389601681841 2.5148001512139926 255 255 255
-0.1190310375780124 0.7227318189327470 2.5155884812366391 255 255 255
-0.3171364057787331 0.7226758684506325 2.5658388967300594 255 255 255
-0.2425820727095226 0.7466070349876651 2.5575339865801174 255 255 255
-0.1935425642602748 0.7619093498915639 2.5565418218175378 255 255 255
0.2738663085534910 -0.4738844197377290 2.2972288347819632 255 255 255
0.2370796969185451 -0.3081259908724618 2.5060633918553741 255 255 255
-0.3709096983200570 0.4437472671887726 2.4779666359662826 255 255 255
-0.6095976592434840 0.4949832857641353 2.5467118887289573 255 255 255
-0.2061778976327254 0.6170101799007486 2.5097919716015675 255 255 255
-0.3294617565024013 -0.4903418776414621 2.1681495841846292 255 255 255
0.1033686349446370 -0.1824223450832960 2.1612662825371451 255 255 255
-0.1282787182995508 0.5083737473571470 2.4589179564813470 255 255 255
-0.2996634743039257 0.5355788109288229 2.4925109535878853 255 255 255
-0.1671031703310595 0.6401798296888219 2.5140273579228931 255 255 255
-0.4060531588494962 0.6910082912162603 2.5560454479994972 255 255 255
-0.6921140158061209 0.6273554373104863 2.6033616980831336 255 255 255
-0.2380989529115921 0.7574923410449708 2.5646258139742466 255 255 255
-0.7775667307515255 0.6646361766660851 2.6124693077222498 255 255 255
-0.2809572660317458 0.8298328040948625 2.5782292914408744 255 255 255
-0.1919127664473437 0.6077439643489111 2.5093283418124184 255 255 255
-0.6122424811469021 0.5287088305621757 2.5359599262404906 255 255 255
-0.5150516295209617 0.6721668975364963 2.5880968630616472 255 255 255
-0.4766019745313502 0.7088979252404526 2.6006392364374675 255 255 255
-0.0628232978127819 -0.2148366477019756 2.2010629260434111 255 255 255
-0.1605668313089579 0.6337048628475843 2.5005988549063822 255 255 255
0.1993067119666089 -0.6305641682102769 2.3901108392163763 255 255 255
-0.4488826799581017 -0.7760864330101700 2.0649982928110919 255 255 255
-0.1742086606592310 -0.2329720962438357 2.2278183569557783 255 255 255
-0.0652897443013656 0.1397996877251924 2.3175247888936088 255 255 255
-0.3362092965402433 0.2045688754618546 2.3999252858722806 255 255 255
-0.1427785157804767 -0.4300209888996502 2.1561084591612443 255 255 255
-0.5394924639191689 -0.5358144986555811 2.2203248916388829 255 255 255
-0.5041662924966265 0.4457394465691484 2.4999593958287694 255 255 255
-0.8181889339543025 0.5727176016224599 2.6008601988035984 255 255 255
-0.4459419922473529 0.8039097029399098 2.6228553071057070 255 255 255
-0.4162552757205191 0.8156745932591911 2.6063354906592728 255 255 255
-0.3992827867203612 0.6967480070848031 2.5703606096869924 255 255 255
-0.7809127351219202 0.6651985639145445 2.6087625352789163 255 255 255
-0.1932028667889978 0.6397965604097022 2.5144478585332060 255 255 255
-0.5068872404879841 0.1224748823760766 2.3921711247503517 255 255 255
-0.5099671267998001 0.2966540799714548 2.4661167248857501 255 255 255
-0.3702988009803532 0.5734992599307018 2.5306067318753236 255 255 255
-0.4106201451414009 0.7033701797777792 2.5740325179013470 255 255 255
-0.5079561770245116 -0.0531556470961370 2.3306905955786270 255 255 255
-0.3987694168516578 0.6961621715746822 2.5708416636314908 255 255 255
-0.7306862843646489 0.6307575161444898 2.5955683438736488 255 255 255
-0.7795590488042197 0.2632397512226108 2.4857743799726002 255 255 255
-0.7043286990688544 0.6186472162858074 2.6042899266241353 255 255 255
-0.2416731534678933 -0.1451766490522789 2.2662135050747385 255 255 255
-0.3360568499187551 0.4583796543245855 2.4863251360318586 255 255 255
-0.6189461902025867 0.6384766968776958 2.5500252980478040 255 255 255
-0.8927996677416541 0.5488169442674629 2.6047256786440709 255 255 255
-0.5677897990044682 0.5007475162848973 2.5336873005264380 255 255 255
-0.7061444436446658 0.6180309114717435 2.6064867475878262 255 255 255
-0.7745501723147719 0.4426844006567586 2.5578320293517596 255 255 255
-0.3468276253343774 0.3298275951320866 2.4245565259094022 255 255 255
-0.6479161400157532 0.7403067099821863 2.6315718681945945 255 255 255
-0.3098474346600923 -0.0350191583328865 2.3135910863791409 255 255 255
-0.1649160450468514 0.3571391842475757 2.4285630728655745 255 255 255
-0.5324052855911665 0.3888351822892573 2.4915972120846162 255 255 255
-0.4125527945800069 -0.1889306821128155 2.2737345816292613 255 255 255
-0.5678857015598144 0.4930914505861032 2.5350616149614535 255 255 255
-0.5095465031204469 -0.0149465518654548 2.3417535780732486 255 255 255
-0.5687660592531163 0.4886774518655121 2.5336493788055137 255 255 255
-0.4545804993750084 0.8099583776246604 2.6106288899994272 255 255 255
-0.6356227246947483 -0.7550422303363682 2.3488690945119739 255 255 255
-0.8779512475505582 0.0833514699047488 2.4916764275080494 255 255 255
-0.6593475270612110 -0.5467703333771752 2.5816707089279678 255 255 255
-0.4228125574208932 -0.2110350616330294 2.2448420063157375 255 255 255
-0.9364541699539797 0.2974370590603828 2.6852471680740524 255 255 255
-0.9178314205122522 0.3098312457886134 2.9834275854580046 255 255 255
-0.9047802099438513 0.3330394637332335 3.1026438257809588 255 255 255
-0.9472931778828588 0.3811017692235574 2.8379853070788741 255 255 255
-0.9654045869155645 0.5036060408955949 3.2212780233858815 255 255 255
-0.6294000875880599 -0.7565314183790157 2.3500506587903818 255 255 255
-0.7165679465733774 -0.4686551686342533 2.3101886641816218 255 255 255
-0.6531627844227152 -0.6011068949226015 2.6257576531918509 255 255 255
-0.9853501591293812 0.4984714632166725 2.7766724866453902 255 255 255
-0.9694858811577234 0.5169072327809019 3.1154900771300404 255 255 255
-0.5928938166020288 -0.7284948055618088 2.8828730898037520 255 255 255
-0.6388590395955411 -0.6939609463050687 2.4379465434739611 255 255 255
-1.0022829827131332 0.5288181674604595 3.1148874104977899 255 255 255
-0.8182386932105450 0.4170637119466059 2.5837872171047973 255 255 255
-1.1736740084960644 0.4268328748092072 2.2725093056338554 255 255 255
-0.9867607015671602 0.4543854828239992 2.8212801192453121 255 255 255
0.1652462988624492 -0.9669847338612447 3.0001052605402165 255 255 255
-0.6142295770940507 -0.6355029176003484 3.0357016200847511 255 255 255
-0.7908471229298222 -0.2132730273562746 2.3680724680390668 255 255 255
-0.8073386454201206 -0.1464127004483746 2.4636185432669677 255 255 255
-0.7594031523481704 -0.2373003968457255 2.7340734775935402 255 255 255
-0.7285966483221102 -0.2989899151944559 2.9200288571948825 255 255 255
-0.7695300292278944 -0.1040328995393534 3.1402967013835479 255 255 255
-0.9462086682635622 0.3634222375335705 2.8215218233624135 255 255 255
-0.9772004320083596 0.4137046814504923 3.0286711426096282 255 255 255
-0.9487069620943700 0.4741268185782664 3.3149944650012735 255 255 255
-0.5841346379306671 -0.6890779062948376 2.5499211539167099 255 255 255
-0.6729210796734932 -0.5217994018848096 2.5034864457381527 255 255 255
-0.8690058288749967 0.1640686219869494 3.0613207808472715 255 255 255
-0.9375174611316233 0.3820126733760292 2.9179089282504798 255 255 255
-0.9712181146673160 0.5167554534325618 3.1146353744149486 255 255 255
-0.9593798060518424 0.3952132949646785 2.6959207579903079 255 255 255
-0.6495408496788713 -0.6461460726286639 2.5068247128995331 255 255 255
-0.8333683044813364 0.3968100302328516 3.1154243452691412 255 255 255
-0.9659253880907386 0.3984450889601368 2.8842410241520362 255 255 255
-1.0041507433642280 0.5287352521067019 2.8521006463539322 255 255 255
-0.8646105746371440 0.0948344650150901 2.6487239327013334 255 255 255
-0.9318117664115668 0.3391926303839651 2.6740512580949094 255 255 255
-0.9500120001557271 0.3281184716384113 2.7640860393868678 255 255 255
-0.9277951769813342 0.4317748324045377 2.6267334781916105 255 255 255
-0.8899020793783166 0.3627282244349743 2.9717918767165656 255 255 255
-0.8533247673594211 0.0782533495265056 2.7975898977681766 255 255 255
-0.4065838577360523 -1.0840923755416496 2.8902420927220334 255 255 255
-0.5412628380701676 -0.9831199236943711 2.4609775916429726 255 255 255
-0.5799787940462124 -0.6432393528198901 2.1474468687949724 255 255 255
-0.6391591971750543 -0.5722257196724030 2.7324246445577387 255 255 255
-0.6847244005988209 -0.3990383966170983 2.7009099694058900 255 255 255
-0.7024426330908113 -0.4249617019898437 2.6379413368219957 255 255 255
-0.9586404558052948 0.4956390181883989 3.2199261613097576 255 255 255
-0.7059470052457506 0.5048173654885382 2.5399882194302386 255 255 255
0.4445455192546275 -0.8410599684021078 2.9006306902030112 255 255 255
-0.5169369888026836 -1.0672111890663398 2.6706207562443183 255 255 255
0.2224938076419960 -0.5294038987543956 2.8456495412566483 255 255 255
-0.5951283883771339 -0.7776683550981147 2.6807506828041596 255 255 255
-0.0700652228499212 -0.6822075981923901 2.0486713139989674 255 255 255
-0.2044628959426973 -0.9177544442541503 2.8863740237108004 255 255 255
-0.6315508778936412 -0.8877403564133051 2.1005532085860015 255 255 255
-0.6264414517782946 -0.8789755045795928 2.1176050255474621 255 255 255
-0.6447463558305699 -0.6363023645802137 2.3410853396702151 255 255 255
-0.6711109365136814 -0.6176914248300331 2.2567112032615881 255 255 255
-0.2284831604424795 -1.1047486826060799 2.9499516974358926 255 255 255
-0.6110277651504958 -0.9121217752251596 2.1776615613819530 255 255 255
-0.8888069975407404 0.2106522927848573 2.8733395631675194 255 255 255
-0.8330826502874515 -0.0053893632464508 2.5355194995405839 255 255 255
0.2062176058844045 -0.5050147716353877 2.6596454760722281 255 255 255
-0.5873053389467344 -0.7462471807222961 2.6829560610437397 255 255 255
0.5044491157337916 -0.7748219593349290 2.8159323388603639 255 255 255
0.3797556471083112 -0.7030606830279567 2.5289764063319922 255 255 255
0.3868419688417930 -0.6959233127651601 2.5156137755996610 255 255 255
0.0379110397208393 -0.8618313053405409 2.8885868922531301 255 255 255
0.2172648772937009 -0.5449485635301130 2.4709066272057782 255 255 255
0.2317592872958585 -0.5331916066123483 2.4668015972457624 255 255 255
-0.6408997603494875 -0.9445917568781095 2.1902860942124391 255 255 255
-0.6520754580902519 -0.6251079121663423 2.2817892653547176 255 255 255
-0.6295131139550278 -0.8683984955382869 2.1068810045940580 255 255 255
0.3998711527323735 -0.6931710360596455 2.4324370251494329 255 255 255
0.3145414830292772 -0.6264882485360701 2.1605895162336841 255 255 255
0.2184822106918602 -0.5655959541177538 2.2752371389352390 255 255 255
-0.7146264330656749 -0.4833465708888980 2.3124975525800835 255 255 255
-0.5914285850820420 -0.7186442579645274 2.7430351033120246 255 255 255
-0.6197995680901727 -0.6177465649208926 2.8279720409534548 255 255 255
-0.7103217513489382 -0.4388978094311371 2.3264549975298046 255 255 255
-0.5925734240168765 -0.9452342438416235 2.3394686863879741 255 255 255
-0.6147457836537882 -0.9113896015930791 2.1943625786169036 255 255 255
-0.4709398964238899 -1.0564191084517587 2.7715238698105633 255 255 255
-0.6411033381337264 -0.8891125136395912 2.2240991654462157 255 255 255
0.1334221133669775 -0.4777569611891613 2.0924028364419001 255 255 255
-0.2194038149417903 -0.3513535502663258 2.2165234066320991 255 255 255
0.0359220902040952 -0.3202664795501800 2.1608468263448817 255 255 255
-0.2361718872869174 -0.3028882086964768 2.2024499173076322 255 255 255
-0.1280258084628905 -0.2289021020700295 2.2173442799686995 255 255 255
0.0387557571543079 -0.0574677232925089 2.2431381229341074 255 255 255
-1.2850667265525004 0.8861681063852362 2.4640413255199576 255 255 255
-0.3132116848150799 -0.9570327325311218 2.9183259964519737 255 255 255
-0.1874875808847652 -0.9109832099403015 2.8970765915671377 255 255 255
0.2392246124147255 -0.5824411184816232 1.9983826793251875 255 255 255
0.2429307947246934 -0.5719525053056741 1.9998485397508321 255 255 255
0.0519841131555585 -0.4643069588129591 2.1036132266210203 255 255 255
-0.1726684499146408 -0.4804915506548336 2.1510307655030791 255 255 255
0.1484309287091832 -0.4218715338870332 2.0983367408791795 255 255 255
0.1043289543954047 -0.3732508705596609 2.1291620246650034 255 255 255
0.0412955825914066 -0.3699045354505339 2.1464876365316181 255 255 255
0.3528393177333750 -0.8644771505363577 2.9313125291124171 255 255 255
-0.0293742014008746 -0.8585882161307448 2.8975865240540082 255 255 255
-0.4313984898778731 -0.9350544760800789 2.9465686472643258 255 255 255
0.1709903074644162 -0.6371191100128344 2.6491601389471588 255 255 255
0.0263528748421280 -0.3963756831606475 2.1388074962168560 255 255 255
0.0853924296558722 -0.3773089084486968 2.1357117470870470 255 255 255
0.0389905195654348 -0.3713670020676362 2.1462062003993587 255 255 255
-0.1421178029948066 -0.2704993847928605 2.1968798910166321 255 255 255
-0.6879049210290162 0.9402222174448980 2.6702702778733283 255 255 255
-1.0792596854163889 0.8222765815702502 2.7242986591210041 255 255 255
-1.0868573300494404 0.8506533965591316 2.6957450580436770 255 255 255
-0.8573138363410345 -1.3844498071005695 3.7562711433239855 255 255 255
0.4064658308381865 -0.8254357556636940 2.7804579041657007 255 255 255
0.3217574241300745 -0.7606499169389540 2.8705905845624402 255 255 255
0.2628535138816567 -0.5838358254352790 1.9879144596871754 255 255 255
-0.0849669215687917 -0.5465272732305120 2.1080623788847932 255 255 255
0.1196398615532975 -0.4815191766550403 2.0969354910746842 255 255 255
-0.0949881851905279 -0.4602925875213182 2.1402169557216579 255 255 255
-0.0321055892086366 0.0428558378214525 2.2909612851196073 255 255 255
0.2479512283495333 -0.5877983590330760 1.9891386769900516 255 255 255
0.2093684626182152 -0.5563159614058845 2.0110964937767997 255 255 255
0.0793642080795254 -0.4678053134899822 2.1094457992138338 255 255 255
-0.1003546454312283 -0.4353564132989619 2.1525056294000322 255 255 255
-0.3650826594689134 -0.4435025009025702 2.1993252741736349 255 255 255
-0.6649820577180634 -0.1357460541001956 2.3370255109753089 255 255 255
0.2863316267808667 -0.7398451151041909 2.8070345304333131 255 255 255
-0.3467187383750725 -0.7345117081448186 2.0385274797777484 255 255 255
-0.7406546105244383 -0.3616468897990937 2.2803475300300118 255 255 255
-0.3139816020746366 -0.9558771768464926 2.9142864373347837 255 255 255
0.2957225838033104 -0.7096619893083385 2.7138110710538665 255 255 255
0.3152097053665330 -0.7004380669364536 2.6853527914106188 255 255 255
0.2301218489851144 -0.7078482877137533 2.9012634482961790 255 255 255
-0.1450603792976582 -0.4612353400042465 2.1480838716506190 255 255 255
-0.1461987725667842 -0.4288895350906531 2.1632673975867123 255 255 255
-0.0057580288248454 -0.3610446347648284 2.1451217757892103 255 255 255
0.3164745645502338 -0.7417457497450487 2.8416805567941719 255 255 255
0.2318977988061612 -0.7036167377253063 2.9028277800701918 255 255 255
-0.2022901483566419 -0.6709633430463952 2.0365049637272454 255 255 255
0.0520072697487357 -0.6112264185370496 2.0226604056197726 255 255 255
0.0818706076954869 -0.1913190500914657 2.1941485134701608 255 255 255
0.3195181854563424 -0.7236160139972949 2.8179779647284984 255 255 255
0.2352686620501476 -0.5323012459919813 2.0071675110135114 255 255 255
-0.0731826040063013 -0.4179028620424945 2.1469108525828453 255 255 255
-0.1662004916685003 -0.3607160813532899 2.1874888286822824 255 255 255
-0.1921254603661064 -0.3432838902577648 2.2018750995825291 255 255 255
0.1647950285991198 -0.7149005328610003 2.8305324777253977 255 255 255
-0.6722606559460682 -0.6340300755204067 2.1741590555785795 255 255 255
0.4078096936324567 -0.7841725728706670 2.6824466034655856 255 255 255
0.2696837336211537 -0.6662906577512580 2.6190260382656882 255 255 255
-0.3120001534531529 -0.4803753003858156 2.1669345352689069 255 255 255
-0.5311532883097290 -0.4927267231810201 2.2059669252546197 255 255 255
-0.3346032135399652 0.3162084727987979 2.4336896332618347 255 255 255
-0.2914587350090063 -1.0594054813640179 2.9860969526723977 255 255 255
0.3789870015506089 -0.7190986928876123 2.5029446639847990 255 255 255
0.2723211401538399 -0.6529724543990834 2.6335277374281079 255 255 255
-0.2832795911367707 -0.0015178991297066 2.3306030965853677 255 255 255
0.4195750323576828 -0.7839841927301405 2.6327677519393546 255 255 255
0.3484291505136046 -0.6780344560033469 2.4559074865155743 255 255 255
0.0481380952201915 -0.3598039664001913 2.1479164241536850 255 255 255
-0.0035428038164303 -0.0615132394064479 2.2526376318116510 255 255 255
0.3258647562446040 -0.7360663242799699 2.8639436597332697 255 255 255
0.2689153193764382 -0.5889229521242147 2.4492562409643410 255 255 255
0.0578476267661010 -0.3048622514188040 2.1763246814896036 255 255 255
-0.3283375892017157 -0.7790538880821102 2.0357335595257005 255 255 255
0.2964863527959380 -0.6367418128963105 2.5324915041579317 255 255 255
0.2629449763687859 -0.6223032681149121 2.7160615575792662 255 255 255
-0.5193484277115781 -0.3340041158144301 2.2499283733225575 255 255 255
0.2972756705868687 -0.7215173025114766 2.8995577080962311 255 255 255
0.3145108804253756 -0.6226550403238535 2.3138868762794864 255 255 255
0.2257512711740803 -0.6899595160392009 2.9076501990653707 255 255 255
-0.6348606128480784 -0.4265213992254653 2.2265777353501433 255 255 255
-0.5577125709892231 -0.4017995473185012 2.2228725796696320 255 255 255
0.3818845309981267 -0.7431671112912468 2.6543530195766287 255 255 255
-0.1729805251073659 -0.8982926913405803 2.9017515614082758 255 255 255
0.2115106008718159 -0.7689994857720599 2.8799961128729130 255 255 255
0.2960747796946741 -0.6651556811832355 2.5482238324907698 255 255 255
0.2780642395495665 -0.6871124877086350 2.8036732989627495 255 255 255
0.2765814387210712 -0.6810333628444176 2.7990903199919011 255 255 255
-0.5575004493111368 -0.4037615490101603 2.2224527822911320 255 255 255
0.4019660692006894 -0.8183602629918934 2.9269094942221869 255 255 255
-0.3209244250385755 0.0028931311747488 2.3245041256789527 255 255 255
0.4166065806705195 -0.7980106570169003 2.6980965449702730 255 255 255
0.3105310619512736 -0.6235116850262665 2.3081067576149650 255 255 255
0.3593593175940555 -0.7510879589562475 2.8739604004414190 255 255 255
0.0474512682803686 -0.3591161145815466 2.1461741474411036 255 255 255
0.3393720635909823 -0.7260079558112382 2.7584753747577295 255 255 255
-0.3475354499742704 -0.7727813648888346 2.0351800511046521 255 255 255
-0.2401623165601130 -0.6850998601521608 2.0417902471956424 255 255 255
0.3750822323204250 -0.7539018385943008 2.6933930939897870 255 255 255
0.3662892257062680 -0.6857217263374746 2.4200376257136043 255 255 255
0.2835349537058427 -0.6399093833465370 2.4169526030980553 255 255 255
0.2924513263959359 -0.6023515503204833 2.1260989214431394 255 255 255
0.0070529011380103 -0.3734203131570233 2.1281963082407600 255 255 255
0.3462365087304846 -0.6896967733611792 2.5055634872037302 255 255 255
0.3566620112700640 -0.6719737194488138 2.4593121668654199 255 255 255
0.3256292111559276 -0.6367150937928230 2.2343468198695291 255 255 255
-0.1529660130035921 -1.0589210467989885 2.9589601205546501 255 255 255
-0.2177987062104325 -0.9410750871229099 2.9283916967265533 255 255 255
0.2729342701955062 -0.6502951457550878 2.6319598922242164 255 255 255
0.3377280850837039 -0.7313021435831573 2.7473793012988352 255 255 255
0.2609559164788031 -0.6644651482689508 2.7050293628867053 255 255 255
0.4153598050742957 -0.7853408062821474 2.7653755273892955 255 255 255
0.3744519865167888 -0.7041391704463540 2.5245230463891097 255 255 255
0.2839978640120009 -0.6829610572101226 2.7724859667596053 255 255 255
-0.1458459128112963 -0.6819510505048889 2.0108273693757326 255 255 255
0.3403288847487360 -0.6749109115434901 2.4581958292246693 255 255 255
0.3451047826832863 -0.6520706187284304 2.3605576435566462 255 255 255
0.0052903800508943 -0.6297950314547727 2.0177825382806844 255 255 255
-1.0456684599228772 0.6626938209048574 3.2690132904154101 255 255 255
0.4656344176013079 -0.6264837032184936 2.4600825620047999 255 255 255
-0.3545087663075304 -0.7158197517356633 2.0407752279911691 255 255 255
0.2914003436131338 -0.6023719037164952 2.2627230190532543 255 255 255
0.2600031676845518 -0.6426887098787137 2.6914070048641037 255 255 255
-0.0086050878385322 -0.0291146096252106 2.2610813282616107 255 255 255
0.4038446651872114 -0.6580344423332858 2.3755727541937777 255 255 255
0.3512703718266970 -0.6731752857494158 2.4384453895188081 255 255 255
0.2801388628455328 -0.6908520174547927 2.7468388249152440 255 255 255
0.2727157592065623 -0.6607613404002315 2.6700402409961299 255 255 255
0.2624206231570234 -0.5877116532061262 2.8886897501970097 255 255 255
-0.3416785057481526 -0.7598214866964081 2.0362556028402103 255 255 255
-0.3352386347519030 -0.3974722226692400 2.1999326753384700 255 255 255
-0.7385155531262875 -0.3937584737659776 2.2658839916288542 255 255 255
0.3453754615249380 -0.6778369551786421 2.3345010306793101 255 255 255
0.3239468318496819 -0.7069539646939944 2.7286151722629199 255 255 255
-0.1895292854348511 -0.9131934816285865 2.9089968186529092 255 255 255
0.2597792044384590 -0.6383954224114472 2.6916035814422301 255 255 255
0.4012014108528632 -0.7648939632717591 2.6920578201969008 255 255 255
-0.2766483012294749 -1.0645957719769088 2.9812005763375780 255 255 255
0.3557509251160944 -0.6977864694880695 2.5066489880500633 255 255 255
0.3270616197370089 -0.6378647988351958 2.2362234576964966 255 255 255
-0.6262160321094328 -0.8254133048656689 2.0911041264982977 255 255 255
0.4070269339790116 -0.8050283550670470 2.8571176181184157 255 255 255
0.2915298379965066 -0.6484773651957383 2.5112224719876792 255 255 255
-0.4910548949690372 -0.8249996176230450 2.0378876478934025 255 255 255
-0.7589947345863308 -0.2218016492280697 2.7129465673739048 255 255 255
-0.9576268055056238 0.2407944518003067 2.4633780447728975 255 255 255
0.3629591419951623 -0.6902212773288605 2.4134045920363043 255 255 255
-0.5695721209075195 -0.9803931113285071 2.4497775739012013 255 255 255
-0.6264686948935356 -0.8670256116688417 2.0744069437551431 255 255 255
-0.6635967424108493 -0.6719587252181043 2.1549685174691149 255 255 255
0.3925508508010722 -0.7597248151989611 2.6320068217084440 255 255 255
0.3894751928869908 -0.7508763688692035 2.6541704754223261 255 255 255
0.2781209969835103 -0.6702289537391941 2.7385299145538298 255 255 255
-0.6337376454745325 -0.7701753049935913 2.1364012468685427 255 255 255
-0.6407164412770605 -0.7403306911294205 2.1494369417242289 255 255 255
0.4249371017078403 -0.8183042749304015 2.7927604744727006 255 255 255
-0.5503835262251968 -0.9996535398611703 2.4798948420200091 255 255 255
-0.5554890146952829 -1.0279302740043401 2.7013631441460433 255 255 255
-0.6124868543921949 -0.8999801201328135 2.1296321450323399 255 255 255
-0.5542357288846631 -0.4658769444699118 2.2162912717039092 255 255 255
0.2957068328180412 -0.6954788257637823 2.7714457987137564 255 255 255
0.2776281180936451 -0.6146934868191920 2.4132158885329389 255 255 255
0.0558809242137670 -0.6334281004273841 2.0115214553505041 255 255 255
0.2645500558963789 -0.6261849023289692 2.7180670455100540 255 255 255
-0.6205867750598806 -0.7572677147556774 2.4437781154589615 255 255 255
-0.6453535800348220 -0.6337030942116346 2.3379200637926623 255 255 255
-0.7156419195573847 -0.4782822141234888 2.2844665092943330 255 255 255
0.3174002299154566 -0.5890344262232254 2.1819365251417437 255 255 255
-0.5999703999911645 -0.9433055536768951 2.2801546931938930 255 255 255
-0.6157733012397344 -0.9014747141004875 2.1392968250193931 255 255 255
0.2848055579066440 -0.6412910443146931 2.4178013532848475 255 255 255
0.2620026798043114 -0.6415159419073220 2.4887967460597054 255 255 255
-0.5696165954061101 -0.9758155041738732 2.4781224650942448 255 255 255
-0.6298213986771657 -0.8778172709695724 2.0797173201735291 255 255 255
-0.6240556935318153 -0.8788660622534454 2.1634234381845943 255 255 255
-0.2639833855928515 -0.5659014199435148 2.1427843521460233 255 255 255
-0.6420526294443327 -0.6779900801327834 2.2597065280828446 255 255 255
-0.5962618739801719 -0.9204866217817136 2.2804768025475894 255 255 255
-0.5703728009221436 -0.9970682541741880 2.4343092858391060 255 255 255
-0.5859309023431223 -0.9724538373668103 2.3521892980835553 255 255 255
-0.5888858207721270 -0.9666291746328319 2.3400521942689068 255 255 255
-0.5362551611263129 -0.9670336644405617 2.6894428537188535 255 255 255
-0.6136045727637338 -0.7773690466345187 2.3995756119231686 255 255 255
-0.6434627605484309 -0.7248124980124828 2.2058781768590308 255 255 255
-0.6453208437742610 -0.7172359746632537 2.1989865687018408 255 255 255
-0.6637874932227454 -0.6453277364464931 2.2446350699160220 255 255 255
-0.9995786640073767 0.5855460326403943 3.0860687977943542 255 255 255
0.3204226730504161 -0.6124171226356392 2.1714319651419736 255 255 255
0.2801359264111625 -0.6739117764675342 2.8006961912470416 255 255 255
-0.5517177909514857 -1.0087389797977142 2.5508623038444540 255 255 255
0.2397134405240990 -0.6134089260424407 2.5059028749823256 255 255 255
0.2295317577852529 -0.5969793768691716 2.7059552602161716 255 255 255
-0.6288331724738327 -0.8855188032486012 2.0990453688929733 255 255 255
-0.6180556492487419 -0.9112543574572651 2.3448448937702757 255 255 255
-0.6236012006193903 -0.8982031340868311 2.3082878766069683 255 255 255
-0.6532284131033279 -0.6221763371022000 2.2988377375899205 255 255 255
-0.4909532179725602 -1.0660520022875808 2.7412721634095192 255 255 255
-0.1240561329907166 -0.6855031736480797 2.0341822174198896 255 255 255
0.2300348332480553 -0.6230488422748977 2.8663268823233921 255 255 255
-0.5995072349502095 -0.9322715712790064 2.2957827123905759 255 255 255
-0.5991235284927114 -0.9233532623547367 2.2796453458666157 255 255 255
-0.6259470256200572 -0.8672888843358422 2.1140769644096054 255 255 255
-0.6284011528257381 -0.8680477537578231 2.1315518290194078 255 255 255
-0.5795516635926248 -0.8266432495618830 2.6665809416889203 255 255 255
0.2390135025241893 -0.6960124825089631 2.9078966560196449 255 255 255
-0.6624906426061834 -0.6702472748064068 2.1573251883017477 255 255 255
0.3451188980779420 -0.7423444914828536 2.8153119310599379 255 255 255
-0.5610655417304784 -1.0035425922521775 2.5191708110186823 255 255 255
-0.7167262873606859 -0.4757809375956157 2.2402959296473313 255 255 255
-0.7652174974912498 -0.2898908533043283 2.3679154531868249 255 255 255
-0.8758749932406120 0.2147904120967663 3.0902896591109261 255 255 255
0.2868250434710831 -0.7074054782813022 2.7846446572211789 255 255 255
0.2362539029190884 -0.6164431665841050 2.5543703251885290 255 255 255
0.2385404352200737 -0.5970552004908427 2.5688494871940009 255 255 255
0.2523164843759105 -0.6013520784764239 2.7503280160700569 255 255 255
-0.3393807969877543 -0.7499794279168768 2.0422745285595525 255 255 255
-0.5696513310937235 -0.8216785232126966 2.6985833268668671 255 255 255
-0.6584872133620117 -0.6673908777943218 2.2149287344808286 255 255 255
-0.6647316535500636 -0.5671993656766858 2.5182058690363363 255 255 255
-0.5394807026341866 -0.8741728196326317 2.8934463574724276 255 255 255
0.2657806878737006 -0.6091492089347241 2.7231489742831343 255 255 255
0.2511125193852308 -0.6006250079836661 2.7522460162618074 255 255 255
-0.5766245054828119 -0.8342428915205957 2.6123600247404397 255 255 255
-0.6161660656458707 -0.8981891859943048 2.3098262812711852 255 255 255
-0.5916081930182031 -0.8400994877999608 2.3689301128003279 255 255 255
-0.5930737667300434 -0.7922676857953306 2.5699080347382335 255 255 255
0.3475380912036314 -0.6586562314334756 2.3168568775088474 255 255 255
0.3229370868659345 -0.6271394278324749 2.2079417731809592 255 255 255
0.3162471358118211 -0.5989366116495631 2.1341132168412535 255 255 255
0.2467105240893943 -0.6036435125776904 2.4933692065915238 255 255 255
-0.5493248751273825 -0.8023997602883348 2.9887592062054296 255 255 255
-0.6047785556378820 -0.7742987692620571 2.5713991327972572 255 255 255
0.3684893658829793 -0.7424299672035950 2.5138795550997273 255 255 255
-0.2905023516676977 -1.0937739952641143 2.9708389483507034 255 255 255
-0.5501426384706747 -0.8673009651541586 2.6873976274389051 255 255 255
-0.6079557192405076 -0.7272792366366758 2.4839738680338996 255 255 255
0.3419439509568285 -0.6428464650616696 2.2906397386093893 255 255 255
0.3184946864638505 -0.6058816990125777 2.1528756715988138 255 255 255
-0.6260517834820547 -0.9001797157302676 2.1377123283057102 255 255 255
0.3831303439144165 -0.7540513531630921 2.5574753799562586 255 255 255
0.3673480624316312 -0.7286716498747694 2.5426659911895797 255 255 255
-0.5875025932100897 -0.8018311664114748 2.6448083107622722 255 255 255
-0.1968713964995530 0.5073776125228946 2.4572681860870347 255 255 255
-0.3340570443105942 0.4415838166801054 2.4707258614968657 255 255 255
-0.1526287359797891 0.6025113242500026 2.4871761446224667 255 255 255
-0.0578551133373324 0.8022350276561667 2.7947520517165003 255 255 255
-0.3805659387331023 1.0276354099924214 2.6901106094943739 255 255 255
-0.6105043767240201 0.4856177067706700 2.5403730175881361 255 255 255
-0.3482613191302022 0.8885792062929880 2.6265256919309365 255 255 255
-0.3907158901405638 1.0160542484752817 2.6848938236642610 255 255 255
-1.3230008027250761 0.8790545085351593 2.4557458778629506 255 255 255
-0.3398411961580603 0.3247182179640262 2.4372911261001633 255 255 255
-0.3620597611944485 0.5714785491496492 2.5165008962842625 255 255 255
-0.3961681858163426 0.5746916317641344 2.5314909037863975 255 255 255
-0.0971912268772623 0.7867650801895820 2.8153703239565502 255 255 255
-0.2866609000279532 1.0231748457709124 2.6748689788932802 255 255 255
-0.2622307862331184 1.0513893039447879 2.6521216769046561 255 255 255
-1.2394718921810863 0.9261676272693364 2.3955738051020745 255 255 255
-0.1851967654166629 0.6792858667621857 2.5107924125145615 255 255 255
-0.4718541190655654 0.9299319051242616 2.6510846328326041 255 255 255
-0.0554321542786482 0.7138443880386909 3.5330182495144555 255 255 255
-1.2503893662009347 0.8569678832624970 2.4508259389096239 255 255 255
-1.2467004044914880 0.8628896839995495 2.4793464504813478 255 255 255
-0.7192924488551853 0.0661926200206011 2.8317216962171869 255 255 255
-0.0688515890464600 0.6899300011139005 2.5959482695885896 255 255 255
-0.6192598117613787 0.5953889047468972 2.5827708649720016 255 255 255
-0.2529321225322292 0.7914819908512811 2.5623342409556074 255 255 255
-1.2796372249325609 0.6065021457020499 2.3215984255739373 255 255 255
-1.2560207955429388 0.8661106801099233 2.3338665919618213 255 255 255
-0.2029504448468153 0.4434559348265198 2.8639864735385570 255 255 255
-0.5346547029082969 0.2505267012099749 2.4480432766916693 255 255 255
-0.2361172338986133 0.4710960755526550 2.4686261429758449 255 255 255
-0.4425398512615732 0.4058538653448571 2.4822421888016875 255 255 255
-0.1968324452846745 0.5903790795360342 2.4934961078702313 255 255 255
-1.3576715681121820 0.8877864786081715 2.4048788571200310 255 255 255
-0.6690461424267942 0.1016238550622930 2.4193533881518121 255 255 255
-0.3284492852522014 0.3053291265506033 2.4384241201331704 255 255 255
-0.3115764594443904 0.7361069836541674 2.5752390877032791 255 255 255
-0.2390168310510091 0.7903792232053237 2.5727990254866091 255 255 255
-0.2875969015943483 0.7972653768327547 2.5386263647264258 255 255 255
-0.1295224329455138 0.9367544196542070 3.0771539148483953 255 255 255
-1.3481455593047045 0.8938378920116818 2.3878689032164573 255 255 255
-0.1645494546711914 0.3488026145237129 2.4056474335211568 255 255 255
-0.1175452850679504 0.4937372959090993 2.4374689608591282 255 255 255
-0.1580624427403174 0.6348605826240323 2.5027608503084053 255 255 255
-0.2616758413523641 0.5782067496780314 2.5121610310810496 255 255 255
-0.3998411180540113 0.6993214997093808 2.5664295213617550 255 255 255
-0.6154002474822643 0.7526273643312325 2.6185601465979431 255 255 255
-0.9558480522174619 0.7544444922513520 2.7001615114793509 255 255 255
-1.3350558804025217 0.8957463196705207 2.4364488118028294 255 255 255
-0.2351456765442457 0.7558521465330301 2.5413191350257556 255 255 255
-0.1460867155610885 0.4657131420486031 2.4499505387763350 255 255 255
-0.2529675445130870 0.9525002064322301 2.6176258807580233 255 255 255
-1.3058464742443174 0.8027127305902475 2.3624874068357968 255 255 255
-0.2081394040997502 0.4229041958808253 2.4442200796968372 255 255 255
-0.1013319394093450 0.6992261948007297 2.5137257956901493 255 255 255
-0.2007230557079529 0.3470093120260416 2.4205473361414960 255 255 255
-0.2035856069864863 0.3595386382563959 2.4242017348952203 255 255 255
-0.5012090234183301 0.2647192500224284 2.4436287522012683 255 255 255
-0.4624509649794942 0.4222743144090927 2.4973925496868548 255 255 255
-0.5655183835077713 0.5105960619827101 2.5252738749796642 255 255 255
-0.7678571948041011 0.4449020906240406 2.5420659587537102 255 255 255
-0.1218533307210024 0.5230155398707268 2.4609559637342073 255 255 255
-0.4276853133768208 0.5702740285626078 2.5275827868893472 255 255 255
-0.5688037032380180 0.5076101020356631 2.5285557182258600 255 255 255
-0.2738204455286364 1.0350152764308902 2.6528684479061617 255 255 255
-0.9515123298514068 0.8845045300659891 2.7268638454209766 255 255 255
-0.5285150005941390 0.2260370773812186 2.4334272568675983 255 255 255
-0.1417318502583345 0.6624553336161156 2.5058122300310188 255 255 255
-0.2023776735665137 0.7433372056083449 2.5521942322147666 255 255 255
-0.3830026872143542 0.6765174042810074 2.5638642695072136 255 255 255
-0.4832815401048940 0.9383675025128326 2.6757399855743671 255 255 255
-0.1213694259176585 0.4168716152004279 2.4270570124242496 255 255 255
-0.6236277636016894 -0.4674153311646734 2.2180611754961106 255 255 255
-0.8093776271694999 0.3056880482828745 2.5064927965688781 255 255 255
-0.7902002753061249 0.4010739684402651 2.3994551881291177 255 255 255
-0.6459539307091897 0.4667021726355305 2.5366934586614516 255 255 255
-0.4793017675402185 0.5549495137649707 2.5326838785984176 255 255 255
-0.4774147075512403 0.7410999966518261 2.5564391240030773 255 255 255
-0.1816337204440579 0.4232564371203438 2.4319366592344949 255 255 255
-0.5321249723798900 0.2261709660979250 2.4378278948582022 255 255 255
-0.1180334425098494 0.4893050405460038 2.4446089174854304 255 255 255
-0.7547199237776709 0.2810679666634002 2.4886313316233952 255 255 255
-0.7555725929731405 0.3618556959808066 2.5144879776885527 255 255 255
-0.4587474903997697 0.4999293891668515 2.5113637326933507 255 255 255
0.1084695618465545 -0.2904196785307605 2.1399847776160392 255 255 255
-0.0506415684030301 0.1536825614305677 2.3303210342500229 255 255 255
-0.1833964704612434 0.4264682514128992 2.4317694775373724 255 255 255
-0.3438615096993587 0.3713325471926936 2.4484093133793863 255 255 255
-0.4550031731407405 0.5514745458233392 2.5411026962507464 255 255 255
-0.3658369304636799 0.8556687902232181 2.6208350713699122 255 255 255
-0.4613943227558046 0.5113545641148676 2.5310535952626338 255 255 255
-0.4401896800600511 0.5856348748777833 2.5068283779021243 255 255 255
-0.6091059284493188 0.7538952468622035 2.6206104623731967 255 255 255
-0.1109616686745711 0.9170116321346100 3.3383453586751557 255 255 255
-0.3498580905024156 0.1413554928581107 2.3749271995185097 255 255 255
-0.8541375201944247 0.0522218517707573 2.4551439430403308 255 255 255
-0.7743980248872901 0.1930714568892427 2.4634708168670869 255 255 255
-0.6448285038993165 0.3414995031972168 2.4976213840919694 255 255 255
-0.8018034364711745 0.6030604164085867 2.6001401717201116 255 255 255
-0.0564202662339675 0.2929602198081622 2.3341538015797205 255 255 255
-0.4546580375229126 0.7314432512466174 2.5676878343124709 255 255 255
-0.3549756848598518 0.8805243457002447 2.6365511990493786 255 255 255
-0.2908958237959873 1.0217172988811036 2.6768040361768630 255 255 255
-0.4695908307478476 0.9222741234363667 2.6607511842063616 255 255 255
-1.2621809349359054 0.6802617860157554 2.3312639345459303 255 255 255
-0.6176301806802008 0.2468219725875784 2.4649419877206418 255 255 255
-0.9265612287872040 0.8332556009140475 2.7588893519538811 255 255 255
-0.3119321482589994 1.0487327153094785 2.6861055390397244 255 255 255
-0.3514585271152848 0.9766397762650723 2.6705334436007817 255 255 255
-0.4661438499137553 0.7940003802209219 2.6174373602381422 255 255 255
-1.0058818060738304 0.4643791032434592 2.8711712240140059 255 255 255
-0.5233850790311285 0.2194739493591173 2.4279124005723807 255 255 255
-0.8490848198743673 0.7036194849812407 2.6514790473648500 255 255 255
-0.3068506106978361 0.5705947064691657 2.5097767961373734 255 255 255
-0.3596427655243057 0.5664429461185132 2.5229793527799291 255 255 255
-0.5897541009397944 0.8972793460687551 2.6661527413184096 255 255 255
-0.3751863611528607 0.4456797730305091 2.4741116574592628 255 255 255
-0.7473267473321608 0.7040003464741780 2.6469078383693159 255 255 255
-0.3638154526221165 0.9011662735548356 2.6263133202264015 255 255 255
-0.5505068134219790 0.8440954479295648 2.6337279606525428 255 255 255
-0.5817759920103471 0.9071191242766261 2.6791380612392253 255 255 255
-0.6663786408683769 0.7023707214071671 2.6020092251503044 255 255 255
-0.4501845122968522 0.8760679101369853 2.6292109069845040 255 255 255
-0.5313697161325139 0.8467484643105294 2.6353559678666869 255 255 255
-0.4853219459577965 0.9369401344472124 2.6777963186774993 255 255 255
-0.4751821369837774 0.9404564692660315 2.6762101550587829 255 255 255
-1.2284521387736622 0.9062220419542992 2.4472219166365985 255 255 255
-1.2302088428633198 0.9071936265418223 2.4436722379235576 255 255 255
-0.7962230602697435 -0.1409005122950333 2.3738555584762011 255 255 255
-0.7709929582310266 0.8752891385497124 2.6754420178378870 255 255 255
-0.6232441901902170 0.6863163391959830 2.5696757888877784 255 255 255
-0.6598078487877470 0.7867258796690191 2.6502576148445343 255 255 255
-0.6503410753153211 0.7899509292618045 2.6501867096667873 255 255 255
-0.3866603660282131 0.6815154036790236 2.5565063328730879 255 255 255
-0.4498649669249843 0.8482353042493429 2.6425954891044228 255 255 255
-0.3778665982950646 0.7142873162981536 2.5658680297318774 255 255 255
-1.1786750103634531 0.6992853835063662 2.3821336054031992 255 255 255
-0.1014293152323198 0.2786986949467973 2.3812665932814987 255 255 255
-0.8258612511846612 0.1785203418002839 2.4637405662658054 255 255 255
-0.6693808164545079 0.8042841478349061 2.6454672360158114 255 255 255
-0.7596013302194784 0.8456347117604253 2.6992264659914689 255 255 255
-0.6769649108983335 0.8791881695944601 2.6702356979567403 255 255 255
-0.7049239569765824 0.9138223746021552 2.7071781224842937 255 255 255
-0.8630887758416170 0.5060225171166799 2.6305452951321708 255 255 255
-0.8863352361991117 0.5240239438886933 3.5368266977115619 255 255 255
-0.4912625324536894 0.8946754524023348 2.6542824080274223 255 255 255
-1.1130372391331940 0.8016896984778283 2.7313828824214372 255 255 255
-0.7031701271087787 0.6189900202835679 2.6036104320029327 255 255 255
-0.9058117029055932 0.5211901035620006 2.6143958469139470 255 255 255
-0.7519266558621247 0.6500630563877454 2.5786200612424999 255 255 255
-0.7834394328114485 0.8400899834537370 2.7003885368279725 255 255 255
-0.7728715424826547 0.6998159532522656 2.6283973547960215 255 255 255
-0.3595080908096691 0.8660719739061236 2.5991886786162581 255 255 255
-0.1971379837163525 0.5908382365908080 2.4917102984866180 255 255 255
-0.6508686846884260 0.6243329782903677 2.5731503174809731 255 255 255
-0.3807303461107878 0.1950604954736725 2.3965535573636831 255 255 255
-0.8821379213153252 0.8445115487333497 2.7520845185217904 255 255 255
-1.1949233302628191 0.3293305734736824 3.9118793046802338 255 255 255
-0.6756199599679089 0.4368949143057019 2.5214462643753510 255 255 255
-0.6414233488663896 0.4771534181564476 2.5376594055144039 255 255 255
-1.1451331496515145 0.7273766854290220 2.3801829287196976 255 255 255
-0.2346616140436879 0.8925027344817096 2.6243449639653988 255 255 255
-0.6390587361027897 -0.6967929264774142 2.5754826960077963 255 255 255
-0.2674915910609315 0.0739341030018892 2.3337793091924652 255 255 255
-0.1247211582398309 0.3668695639809599 2.4029479960406528 255 255 255
-0.5841163441508144 0.3562928409843771 2.4630077269809760 255 255 255
-0.6553234610404459 0.3560989556667202 2.4924537703403900 255 255 255
-0.6373715726769547 0.4525000454744753 2.5322963459740926 255 255 255
-0.2387862915706229 0.5970821370051915 2.5106925025015876 255 255 255
-0.8844889709896728 0.6103931001827521 2.5846980067006973 255 255 255
-0.6590611374900419 0.3398032790973389 2.4897249088306950 255 255 255
-1.2000186128788888 0.8353585161587171 2.4579171588980810 255 255 255
-0.3789355144553497 0.1964230570480900 2.3958026122062321 255 255 255
-0.6550825216528651 0.3373117857902610 2.4922028102645584 255 255 255
-0.7713186632067188 0.6992533443985769 2.6298659533745798 255 255 255
-0.3449408474492301 0.8834960231193776 2.6324637574227197 255 255 255
-1.0613706551566509 0.7540472976144148 2.9322886246984581 255 255 255
-0.7812285318955077 0.4401603480901954 2.5741512733949179 255 255 255
-0.8053908704592914 -0.0501339595403323 2.3809139679033819 255 255 255
-0.7293488218835495 -0.3850343348178225 2.4537094002077344 255 255 255
-0.3102671090932461 -0.0341952956860325 2.3141362962540768 255 255 255
-0.7134288638312931 -0.1920882383085356 2.3226467780068543 255 255 255
-0.7082705476221776 -0.0439852322336947 2.3785734751232326 255 255 255
-0.4164610839232097 0.7048824255539401 2.5879295083912979 255 255 255
-0.5306614703398935 0.7748806743078127 2.6366726106532496 255 255 255
-0.9633108699691562 0.5108789213017388 3.2989662590906619 255 255 255
-0.9185433888263592 0.1428371031637523 2.5292832247800359 255 255 255
-0.8382014652357697 0.6140458066567485 2.5882857379830781 255 255 255
-0.0554786542930401 0.1375842800303317 2.3243332757133714 255 255 255
-0.8543191269731807 0.2525731035069789 2.9584213761949627 255 255 255
-1.0248261567387296 0.6827109752300569 3.1149806858357536 255 255 255
-0.9596901077096902 0.5554022817183757 3.5798569858343683 255 255 255
-0.9358369450251374 0.3543940929022291 2.9143265822942226 255 255 255
-0.9563660125104008 0.4580002497948392 3.1291723381211511 255 255 255
-0.9133693443125068 0.3862392624016096 3.3453530184221236 255 255 255
-0.9323224229951563 0.4247714596892571 3.2797382642574746 255 255 255
-0.9995509238157609 0.5942698860453035 3.0007451751090741 255 255 255
-1.2493970346684193 0.5602584606609007 2.2619654231248845 255 255 255
-0.8853534018397369 0.2330783788310384 3.1555422692485564 255 255 255
-1.3619853685331655 0.8865088553747178 2.3927410542463008 255 255 255
-0.7018877199708271 -0.1986598611327342 2.3001287362244893 255 255 255
-1.2992780583186132 0.8078885355721033 2.4019814265794750 255 255 255
-0.7529685564085469 -0.2338000005935044 2.7591019002684263 255 255 255
-0.9426358038816858 0.3439980425928439 2.6882063513267127 255 255 255
-0.8628227402574282 0.1861631089771763 3.1805930448515625 255 255 255
-0.9396510358927088 0.3567558088435625 2.9333257131944706 255 255 255
-1.0282070726962544 0.4531293535311214 2.8839265141880190 255 255 255
-1.0130419548819560 0.5417289780703527 2.7638027337856244 255 255 255
-0.9635661155179562 0.5273348756522775 3.2042560300653804 255 255 255
-1.0064719124481769 0.6203572264490465 3.1103985147841087 255 255 255
-1.0571970847843559 0.7483236120595289 2.9165723984685172 255 255 255
-0.1684268330646006 -0.1348138542280637 2.2610343711076588 255 255 255
-0.9646056599858284 0.3844229884221804 2.7302239806487947 255 255 255
-0.9614282801165928 0.4347714562211102 2.8560109347790288 255 255 255
-0.9340893451452956 0.4223562118996895 3.2383454956675450 255 255 255
-1.0249088433675126 0.6519228920549054 2.9701604306477236 255 255 255
-1.0102916718377770 0.6157606708301371 3.1091728385051667 255 255 255
-0.9777406489828024 0.6296376465043743 3.3139815819980072 255 255 255
-0.9760671250053150 0.4581860078232296 2.8195091611641629 255 255 255
-0.9130989240401561 0.2272287722199309 2.9420050476215351 255 255 255
-0.5948783039824264 0.5389693034569107 2.5322944181700695 255 255 255
-0.8847559164064904 0.2787123393101183 3.1951728123193419 255 255 255
-0.3901763858069387 0.6930681642568324 2.5774516030832899 255 255 255
-1.0019797913839383 0.5524903786793214 2.8387255396464468 255 255 255
-0.9751425533714695 0.5167358201872752 2.9443080103399808 255 255 255
-0.9285961897828372 0.4206462689249637 3.2458850600853637 255 255 255
-0.9537179897909382 0.5782996665867364 2.9708534069918215 255 255 255
-1.0447706886696722 0.7410593746481905 2.9054259256470765 255 255 255
-0.9851492129230337 0.5923768791975563 3.3401745979972546 255 255 255
-1.0217411256960034 0.6829046983779561 3.1182618033288776 255 255 255
-1.0001533492995378 0.5993350748895026 2.9672345398017654 255 255 255
