ply
format ascii 1.0
element vertex 680
property double x
property double y
property double z
property uchar red
property uchar green
property uchar blue
end_header
0.1256368185284145 -0.2437702465174132 1.2789028928963893 255 255 255
0.0953592965984935 -0.2201514051687252 1.2868666515950551 255 255 255
-0.2402352607215787 -0.1443016713806194 1.4611843279641974 255 255 255
0.0493321339851409 -0.1955088544729966 1.3103690996966844 255 255 255
-0.0407489507834369 -0.1732336042243284 1.3540571594068358 255 255 255
-0.2801361788188736 -0.1151831460919301 1.4723832951718450 255 255 255
0.0495554174369830 -0.1470152440489580 1.2986109008916635 255 255 255
-0.0384602025749849 -0.1098591421479149 1.3496931793126485 255 255 255
0.1416403811809985 -0.1393762085160102 1.2581950790969465 255 255 255
-0.2482378940448950 -0.0543931500947679 1.4545809687871127 255 255 255
-0.2458716375140089 -0.0182069100572386 1.4542958617926676 255 255 255
-0.1348104883202019 -0.0406656350108059 1.3965065855411725 255 255 255
0.1648503149487865 -0.1044082329012177 1.2387420397220552 255 255 255
-0.0120261533620454 -0.0534792560455983 1.3378790386833899 255 255 255
0.1326261061131930 -0.0859888935613622 1.2564876960833331 255 255 255
-0.2154883299703972 0.0091176300342205 1.4325532654237223 255 255 255
0.1290820480400328 -0.0632105978569335 1.2684265813801687 255 255 255
0.0751156582814847 -0.0342597783297842 1.2950205038829452 255 255 255
0.1068669127604368 -0.0312671794441126 1.2676926846702434 255 255 255
-0.1846704716750285 0.0490427538677034 1.4200794898766702 255 255 255
0.1518882638572459 -0.0127312327845268 1.2382264542537786 255 255 255
-0.1954486446229700 0.0923198333521115 1.4150911901653929 255 255 255
0.0388586946309637 0.0470327659396190 1.3278381201425624 255 255 255
-0.1718487079847891 0.1371165190518432 1.3967052620194187 255 255 255
-0.0707947780651381 0.1583201424392627 1.3411320726939953 255 255 255
0.0375291223136394 0.1939085992134961 1.2931771022063181 255 255 255
0.0837418644501824 0.1804616851952285 1.2699355928552736 255 255 255
0.0185284345050049 0.2017758248718290 1.3014554015144926 255 255 255
0.0925025820167000 0.2349973872422968 1.2747733223662565 255 255 255
0.0987808381800566 0.2324122465952323 1.2723687445893326 255 255 255
-0.1753517043181279 0.3224718195347299 1.4082043860680304 255 255 255
0.2265959962582524 0.2126472625120128 1.1948362620888879 255 255 255
0.0415260701383204 0.2824460210285336 1.2758134854709553 255 255 255
0.0008702698484033 0.3285793381708201 1.3018732792095495 255 255 255
-0.1646003168171668 -0.3083551701201992 1.4173531785269347 255 255 255
-0.2924896286027590 -0.2421163515599325 1.4884500132325300 255 255 255
0.0988799126333504 -0.2750215210189921 1.3004025632758882 255 255 255
0.0095614915171495 -0.1430032760062750 1.3294168391369059 255 255 255
-0.0099292357070473 -0.1110138775609515 1.3366992049073212 255 255 255
0.0831562759823424 -0.0858171075019782 1.3057757194601138 255 255 255
-0.0296464856683800 -0.0240445199632303 1.3414305042707371 255 255 255
0.1683719257054088 -0.0553609224790264 1.2525453064039240 255 255 255
0.1462028726432497 0.0161845519388646 1.2495877326082447 255 255 255
0.0614265352860892 0.1238669492657942 1.2831726415883971 255 255 255
0.1395199628017455 0.1100756183403340 1.2500853607288955 255 255 255
0.2040292660381331 0.1790695182432824 1.2090704588830130 255 255 255
-0.1390843972077913 0.2933228646656614 1.3810170449482448 255 255 255
-0.3788499403917596 0.4195981842074984 1.2450339873569962 255 255 255
0.0020088911029587 0.3268601101450273 1.3036386536753364 255 255 255
-0.1487805532508912 -0.5868167227365708 1.4344527272806857 255 255 255
-0.2027742548744591 -0.4830259398528969 1.4596919864897102 255 255 255
0.1370664483837380 -0.1759876079923117 1.2630500002250287 255 255 255
0.1088777762693045 -0.1087944075651128 1.2736028158146375 255 255 255
-0.0677412216511684 0.1896154008456188 1.3565996859093978 255 255 255
-0.1760487895982106 0.2485417307051391 1.4081079134415808 255 255 255
-0.3804989110805079 -0.6068073557216751 1.5652578343026864 255 255 255
-0.0073458171569079 -0.4937941341950478 1.3677029279552331 255 255 255
-0.1129680536694597 -0.3264653434130846 1.4017024620363925 255 255 255
-0.3441543375565754 -0.2366683869686570 1.5146598204232351 255 255 255
-0.1096860959684540 -0.2378777373350620 1.3981724847594563 255 255 255
-0.3127549202052575 -0.1147099653632133 1.4941517934818354 255 255 255
-0.2698527463320517 -0.1105655479585321 1.4655812002612407 255 255 255
0.1550929230810176 -0.1351113007585756 1.2721175899663244 255 255 255
0.1751581506606428 -0.0776152962620458 1.2631265419296334 255 255 255
0.1370885516795570 -0.0047263096848628 1.2520924817753436 255 255 255
0.1950005423271675 0.0014872538556778 1.2206868487659133 255 255 255
0.1821618447080411 0.1090401221442411 1.2294436461004885 255 255 255
0.1780764281153502 0.1858319741390728 1.2276252517960948 255 255 255
0.2027311242922449 0.1764058219372935 1.2094476635811660 255 255 255
-0.1629071580788874 0.3242806892878247 1.4050331965471088 255 255 255
-0.0763098797508852 -0.6831797912238278 1.3610042304613557 255 255 255
-0.3242362375187249 -0.5159671039034279 1.5203089613289213 255 255 255
-0.0342467544114235 -0.5135359297417759 1.3839917305917548 255 255 255
-0.0864973641163589 -0.3371645969614345 1.3816343001961897 255 255 255
0.1087227122401280 -0.3629248040766933 1.2868449200391838 255 255 255
-0.0540732360188230 -0.3184007949392020 1.3784304726886525 255 255 255
0.0347668656764419 -0.0802849456947772 1.3059160154897145 255 255 255
-0.1370167437849763 -0.0085427182785818 1.3955519714582101 255 255 255
0.0525894762074293 0.1210681735510759 1.2804306888230812 255 255 255
0.2019978620564262 0.1657968061230146 1.2229491390944260 255 255 255
-0.0433868172793623 -0.6021833784420298 1.3903844931692060 255 255 255
-0.0906404678399182 0.2082500710189329 1.3819359101443558 255 255 255
-0.0351794539138897 0.1899546901376100 1.3410923627451981 255 255 255
0.0202347895342383 -0.6325814795713995 1.3611907745819813 255 255 255
-0.0892755587851091 -0.5186976198113165 1.3708585259810153 255 255 255
-0.3981566443701476 -0.5315868641342703 1.6500169434394190 255 255 255
-0.0299093812569495 -0.5097783709912385 1.3663318312065691 255 255 255
-0.3638213425803192 -0.3512004705211638 1.5301131427504195 255 255 255
0.1300223733683734 -0.2173299166014813 1.2717491904909450 255 255 255
0.1910909073915397 -0.1395376578510481 1.2585296278633056 255 255 255
0.1469840492344563 -0.1202443834544138 1.2492785018740475 255 255 255
-0.1760637906331568 -0.0827280656246112 1.6686456062369883 255 255 255
0.1240335862891815 0.0926826739396698 1.2394373549152231 255 255 255
-0.1508462147535488 -0.3926946194881937 1.4217913073003494 255 255 255
-0.0670684391873895 0.0025216242690105 1.3465768002900660 255 255 255
-0.0978459079822825 0.0553703250670937 1.3770773055129770 255 255 255
-0.3340877980756122 -0.2337079057283287 1.5177284419564590 255 255 255
-0.1090538296687371 -0.6682555690654093 1.4060851295781767 255 255 255
-0.2791625527256203 -0.6313663665351683 1.4759645647788595 255 255 255
-0.2530433719563685 -0.6291632915482750 1.4726306063139969 255 255 255
-0.2681999564594353 -0.5281512164838151 1.4855723524753301 255 255 255
-0.2928226831237888 -0.5018100395082197 1.4982333055880188 255 255 255
-0.0682504257133694 -0.4875376853903008 1.3891780919772772 255 255 255
0.0478381278714215 -0.4896850949025984 1.3251876152561355 255 255 255
0.0489085194970329 -0.4795471981597856 1.3265311193667131 255 255 255
-0.0080110909436275 -0.4628587582819499 1.3505172917149793 255 255 255
0.0599039133700696 -0.4557000250787695 1.3187261754770887 255 255 255
0.0443016277080002 -0.4501652314414928 1.3250779875909728 255 255 255
-0.0348017718328819 -0.4298424164724324 1.3664047333451350 255 255 255
-0.3678887878352662 -0.3600231184646647 1.5329307440319049 255 255 255
-0.2909771144677931 -0.3542774655853043 1.4925790228489948 255 255 255
-0.1279411552127421 -0.3845616431355365 1.4117374955505424 255 255 255
-0.3671839417204708 -0.3299514016322558 1.5269224218425865 255 255 255
0.0709107665990416 -0.3978234710117121 1.3065357491249259 255 255 255
-0.2817447857544089 -0.2729786829413037 1.4839883374276113 255 255 255
-0.2080975872615864 -0.2783790625088018 1.4444872434014719 255 255 255
-0.1868650267243268 -0.2629947170160989 1.4340846042433375 255 255 255
-0.3412490694422017 -0.2113397022721930 1.5115745686765134 255 255 255
-0.2870816764336472 -0.1538723192138010 1.4842745000287785 255 255 255
-0.2270780653498532 -0.1463907763707577 1.4545241109520162 255 255 255
-0.2173824868589938 -0.0961576024565542 1.4448480429844257 255 255 255
0.0619631035620367 -0.1552300344386826 1.3008133939653241 255 255 255
-0.2316413497364520 -0.0798391179440419 1.4530105844713486 255 255 255
0.0475470384145051 -0.1199999458261667 1.3053720693728064 255 255 255
-0.2026309871301412 -0.0404165517362075 1.4302250211978895 255 255 255
0.0121591710808071 -0.0879396565283905 1.3257312965865879 255 255 255
0.1591396918193340 -0.1117427729115867 1.2440584267256938 255 255 255
-0.2969379670684810 0.0341882820153709 1.4709570159449381 255 255 255
0.1706326622617560 -0.0785069488527039 1.2379198407959109 255 255 255
-0.0388445095316241 -0.0164739212229232 1.3445748641402773 255 255 255
0.1003849346569621 -0.0273578201435838 1.2819082439367997 255 255 255
-0.2389077535369024 0.0731504925063082 1.4552619326007452 255 255 255
-0.1833986993289112 0.0643075211613851 1.4208653851733022 255 255 255
-0.2234448461745588 0.0759897379224848 1.4403833524558873 255 255 255
0.3891153369363501 -0.1218814154681669 1.6066222309037517 255 255 255
0.0122302435099533 0.0452602794375134 1.3139947501279452 255 255 255
0.2262625282557664 0.1031088180062536 1.1951530243125177 255 255 255
0.4633367362511255 0.0395107942999762 1.4557882453226867 255 255 255
0.2362992025675821 0.1311095623443959 1.1894238013241316 255 255 255
-0.2527939919525286 0.2910111880590038 1.4303156507406243 255 255 255
0.2432670481883861 0.1554406197901699 1.1765696587664962 255 255 255
0.2453415153016341 0.1619150522159452 1.1816654584353712 255 255 255
0.2560078803795411 0.1682566183493865 1.1888392018414091 255 255 255
0.2605228124569763 0.1930882705250370 1.1731103994112040 255 255 255
-0.2018827956896887 0.3960432055997379 1.4002229861654829 255 255 255
-0.1115128568782726 -0.6727032022927251 1.4014112266929430 255 255 255
-0.1556927768477321 -0.5091044434695231 1.4287981376655150 255 255 255
0.0294890251153959 -0.5377110785772450 1.3391791492327840 255 255 255
0.0333118838709132 -0.5380548878355704 1.3782395084959722 255 255 255
-0.1661404527371625 -0.4754351253545446 1.4347794678630250 255 255 255
0.0057542524176362 -0.4802593233568611 1.3552389582896289 255 255 255
-0.1128736688978265 -0.4406028338114396 1.4047818589871142 255 255 255
0.0025204117155533 -0.4443729041422242 1.3501691737238319 255 255 255
0.0187958955314134 -0.4488059305042764 1.3403639456071321 255 255 255
0.0472110279303486 -0.4544795312336092 1.3288037841951308 255 255 255
-0.0543365858622867 -0.4089821830672222 1.3773600892119782 255 255 255
-0.0191323378069335 -0.3743598286349084 1.3561774457029756 255 255 255
-0.0924652493316092 -0.3331857073614484 1.3934327038261292 255 255 255
-0.0208357544909110 -0.3438768422631351 1.3535267445165449 255 255 255
0.0910206229708219 -0.3358940795772476 1.2993257138063825 255 255 255
0.2101211609682948 -0.4805973250932523 1.6140215395597777 255 255 255
-0.1751235013359280 -0.2424176683259911 1.4312186330597276 255 255 255
0.0927717783637338 -0.2983030073341117 1.2935470454750733 255 255 255
0.0732342859195505 -0.2829401367515025 1.2993832577943891 255 255 255
0.0533004248105036 -0.2666067504849332 1.3144518582603526 255 255 255
-0.2569434922406559 -0.1932286955938198 1.4644239262363872 255 255 255
0.0441298248640472 -0.2195357650377190 1.3166024178693223 255 255 255
-0.1394136421053740 -0.1601837413498184 1.4042843630589519 255 255 255
-0.1778409876392582 -0.1484510414235669 1.4227633252948202 255 255 255
-0.2649486840018374 -0.1209317275657429 1.4646724203270285 255 255 255
-0.2809359965943485 -0.1162384459643626 1.4719122339331423 255 255 255
0.0954704210846731 -0.1880076775491663 1.2865631810018852 255 255 255
-0.1466377766927014 -0.1115461457431151 1.4101104363911112 255 255 255
-0.1490444818403769 -0.1004079130007900 1.4120635810840261 255 255 255
-0.2296398113191815 -0.0761135667117644 1.4517233746540061 255 255 255
-0.1223277824620634 -0.0638592083592924 1.3881467271908132 255 255 255
0.1520542201254504 -0.1328093086182671 1.2549005873668340 255 255 255
-0.2155589393957591 0.0079417760840688 1.4333629557699084 255 255 255
-0.0094324535966482 -0.0058640038361689 1.3332033295282653 255 255 255
-0.1533807319266369 0.0535813652998263 1.4019167938570796 255 255 255
-0.4766501072126032 0.1908266720559325 1.2925989393782142 255 255 255
0.0423698742839260 0.0472506015343739 1.3029509083039299 255 255 255
0.2015826269020105 0.0272171890681121 1.2178475041770112 255 255 255
0.2078775308767584 0.0285960719840350 1.2079638445873795 255 255 255
-0.0593019201343701 0.1287961213952835 1.3295608352391746 255 255 255
-0.0950037149060972 0.1936745738854959 1.3681230242175957 255 255 255
0.0746372063359910 0.1720401851761841 1.2797211939085766 255 255 255
-0.0355693226737710 0.2087488009569883 1.3394745356811937 255 255 255
-0.0302814248194583 0.2073976202488375 1.3356844116899396 255 255 255
-0.1759305224919575 0.2538615760603665 1.4048247863021908 255 255 255
-0.1415496999759362 0.2532523258790196 1.3801450331231351 255 255 255
-0.1402947858945085 0.2983757684215070 1.3830032336011655 255 255 255
-0.0241030564843516 0.2725015178208557 1.3317230555300696 255 255 255
0.0592089718617510 0.2704311786790125 1.2909901719722616 255 255 255
-0.0278674106551193 0.3093107131255839 1.3362268850784123 255 255 255
-0.1679501901754699 0.3844256343863667 1.3888272433141089 255 255 255
0.0036804128992287 0.3286193046891990 1.3024928944248213 255 255 255
-0.2007764886743040 -0.6419728665076718 1.4511411066925124 255 255 255
-0.3731301358036652 -0.5932948463333894 1.5352207891139962 255 255 255
-0.0063720643981142 -0.4984205388278724 1.3716836603334315 255 255 255
0.0569143881867191 -0.4448529674017223 1.3168529410046261 255 255 255
0.0460460165009333 -0.2501552029628408 1.3137374986949291 255 255 255
0.1389380318965228 -0.2012870379898037 1.2611170025900860 255 255 255
-0.0388917160639126 -0.0158248169965116 1.3413654573486600 255 255 255
0.1955099345767337 -0.0135049143839261 1.2211275217050854 255 255 255
0.1981380894618816 -0.0024392381156719 1.2178517515318319 255 255 255
-0.3485102396818780 -0.5520654976970096 1.5297955883866958 255 255 255
-0.0286985878266606 -0.5990926894918722 1.3733535232537335 255 255 255
-0.1751048082237254 -0.5546528363069250 1.4441295331913224 255 255 255
-0.2312743685269538 -0.5271552318998070 1.4755957267819340 255 255 255
0.0116211350009685 -0.5296434669452026 1.3441699244803402 255 255 255
-0.3431485290500028 -0.4585223491180899 1.5267042309869194 255 255 255
0.0013006612894557 -0.5031847320411487 1.3478310641292381 255 255 255
0.0202070706879773 -0.4815687075047279 1.3409069227683332 255 255 255
0.0675721456169160 -0.4818302879790757 1.3400538848671371 255 255 255
0.0455673557887817 -0.4549134357170690 1.3291213742201684 255 255 255
0.0266110989926074 -0.4364758614192628 1.3425794036457290 255 255 255
0.0049896420376040 -0.3894591282717630 1.3446553392208176 255 255 255
-0.1817651307811374 -0.3464246258162689 1.4351272982398697 255 255 255
-0.2789803452746908 -0.3177653719525693 1.4834724873784655 255 255 255
-0.1187377954906648 -0.3395413761521633 1.3979185941152839 255 255 255
-0.0930026768888776 -0.3340230667979829 1.3948901885363139 255 255 255
-0.3574280893360555 -0.2718936065129398 1.5193951018859408 255 255 255
0.0967417484212341 -0.3442390373072826 1.2976315534022476 255 255 255
0.0918798080784815 -0.3355873991305316 1.3016566421558817 255 255 255
-0.2527198900770684 -0.2117612982091108 1.4763006405723744 255 255 255
-0.2566651997402061 -0.1913370630811189 1.4632508356985614 255 255 255
0.1048516153444332 -0.2576869311420822 1.2843372415391130 255 255 255
0.0396208215014275 -0.2410259889409092 1.3204677838984868 255 255 255
-0.2282659497183763 -0.1577951489602416 1.4518457584567361 255 255 255
-0.1335964511734615 -0.1723833533267110 1.3982291182177820 255 255 255
-0.3291010424777927 -0.1159856780688879 1.4948349922822910 255 255 255
-0.1761933770078792 -0.1472412801465088 1.4214895672911343 255 255 255
0.1232361455355964 -0.2162789298486416 1.2702403366648873 255 255 255
0.0878066985425434 -0.1969277275670933 1.2949877966556116 255 255 255
-0.1346448247108529 -0.1359435084871239 1.4012334905002541 255 255 255
-0.3247521244055660 -0.0860791398351957 1.4910562201942241 255 255 255
-0.2222342841353364 -0.0981788380569109 1.4462341090918445 255 255 255
0.0344826300421081 -0.1334434586072205 1.3136975175843040 255 255 255
0.1512534257198794 -0.1311220733985916 1.2541597634095698 255 255 255
0.0786215348552091 -0.1111220845546743 1.2944820880839352 255 255 255
0.1504296934563492 -0.1102872927187750 1.2545091807821613 255 255 255
0.1367795485266252 -0.0553484667205253 1.2591661373951979 255 255 255
-0.1950620248240504 0.0421993732058885 1.4224288800573825 255 255 255
-0.1910070702225821 0.0655871817647865 1.4062467720144807 255 255 255
-0.0669650717457415 0.0838599245886322 1.3594516211454701 255 255 255
0.0522032561174233 0.0488636042992947 1.2950238905982090 255 255 255
-0.0709577033584923 0.1156048490202790 1.3651611746758148 255 255 255
-0.0642719416738357 0.1152999476581774 1.3436910614188862 255 255 255
-0.1000624404133656 0.1268182535121165 1.3741492382087550 255 255 255
-0.2670417394558948 0.2512646987716387 1.4305789460350800 255 255 255
0.0803532677050338 0.1695211402726420 1.2851256476678046 255 255 255
-0.1618709906825613 0.2553251931197946 1.7414710076903646 255 255 255
-0.1545383543509722 0.3148914153258949 1.3961692929194767 255 255 255
-0.2415037617195741 0.3505798710198622 1.4173994890041743 255 255 255
0.1624129607441078 0.2454028163278949 1.2400274436938581 255 255 255
-0.1679243750137629 0.3830627887389760 1.3888061291741343 255 255 255
-0.1130454823160489 0.3654621676249992 1.3564884335691252 255 255 255
-0.4131763081867887 -0.5614586810655364 1.5657813156681675 255 255 255
-0.2743502031761289 -0.4689469766642480 1.4950385823709347 255 255 255
0.0236917636444938 -0.4879485150146903 1.3417967432094104 255 255 255
-0.3631655428209228 -0.2572256755684599 1.5235586068136087 255 255 255
0.1120327652295741 -0.1664819184471735 1.2739471599554069 255 255 255
-0.2175025476181141 -0.0439878354275800 1.4390430406442078 255 255 255
0.1516500511173469 -0.0473256866955438 1.2455535718418815 255 255 255
0.1250299184223032 -0.0365689934903983 1.2560795311613262 255 255 255
-0.1648829325522123 0.0530383303393172 1.4161629407453109 255 255 255
0.0226060061027318 0.0354290000616564 1.3035604235877374 255 255 255
-0.0835689625749136 0.0707864373095186 1.3595174809290516 255 255 255
-0.2920567092994378 0.1317866697017445 1.4419862664699024 255 255 255
0.0653471061246582 0.0641149454934422 1.2859575864742765 255 255 255
0.1942436162784027 0.1484909620585366 1.2126695820852111 255 255 255
0.1732746232595583 0.2115561588757109 1.2321298929383850 255 255 255
-0.1705223522648449 0.3237293014376530 1.4069948857579000 255 255 255
-0.1170788603855151 0.3650758726235792 1.3575112554217341 255 255 255
-0.4221711458058227 -0.5897831044710663 1.5579747855671235 255 255 255
-0.0191609842213634 -0.4674046187064214 1.3552485067404376 255 255 255
0.0763443623791265 -0.1360267854548263 1.2920058724896339 255 255 255
0.0267995377745169 -0.0742564322531418 1.3136897992150640 255 255 255
0.0237739405253237 -0.6948841914454427 1.4189249204678624 255 255 255
0.0057986161859365 -0.5488156790675971 1.3512903431969843 255 255 255
-0.0420414425221374 -0.5045833451349679 1.3758206617897102 255 255 255
-0.1259958203212497 -0.4202397345886153 1.4106059980561403 255 255 255
-0.0891641627943507 -0.3579764784886112 1.3926611377912188 255 255 255
-0.3437362917024664 -0.2952537189470874 1.5219417249660054 255 255 255
0.1191858466437230 -0.2492940618670216 1.2796957095310968 255 255 255
0.0087079271018915 -0.0412945631960753 1.3190687901314337 255 255 255
-0.0698002777581488 -0.0030186498847264 1.3495806673918205 255 255 255
0.3563971706486632 -0.1914595214036147 1.6089160208454190 255 255 255
0.1591739078893699 -0.0513402582146334 1.2476867182608089 255 255 255
-0.1632449871642541 0.0511346758954749 1.4114562305259799 255 255 255
0.1314180729004244 -0.0160105262424217 1.2509254754956780 255 255 255
0.3298410479128009 -0.0413829306312268 1.7762243419235855 255 255 255
-0.2183339160033042 0.1863942749451947 1.4092302323240178 255 255 255
-0.0641715178571776 0.2085689446584496 1.3534212881187155 255 255 255
0.0504546183408003 0.1750554450416633 1.2994746815915490 255 255 255
0.1955900606403924 0.1523381194520277 1.2128693783343962 255 255 255
0.2413007629613571 0.1493789232686429 1.1760022135607180 255 255 255
0.1198865352506653 -0.2006542735416668 1.2784519975372746 255 255 255
0.1708358109386641 -0.2213780711002169 1.2890920949136380 255 255 255
0.1432897999308587 -0.1292850665332264 1.2642805758398339 255 255 255
-0.0907384718270006 0.0258210327644102 1.3732220966587212 255 255 255
0.1376628159602107 -0.0149143382343095 1.2534617031614115 255 255 255
-0.2168762674161917 0.1958951625313685 1.4089555857947671 255 255 255
0.1956223440943328 0.0901824759846661 1.1912133814710715 255 255 255
-0.0262169272888908 0.2314167095317887 1.3328589746392216 255 255 255
0.0070018930500750 -0.4614120512599298 1.3516363332412729 255 255 255
0.1165569133743407 -0.0862489215438433 1.2689622929663091 255 255 255
0.1358893489227946 -0.0110512347118797 1.2482636822891922 255 255 255
0.2072317649387010 -0.0209230354693535 1.2281461086122363 255 255 255
0.0280594471812758 -0.5181297075676135 1.3341414583871583 255 255 255
0.0467995093163456 -0.1102328398496288 1.3441132252345458 255 255 255
0.0960684890537928 -0.3678014251384063 1.2983594700983172 255 255 255
0.0444345785655734 -0.6672542721318053 1.4152660368844505 255 255 255
-0.2956386271610305 -0.5149592917847006 1.5008784757960321 255 255 255
-0.3955139194265687 -0.4640919021219986 1.5572406055385590 255 255 255
0.0229072988683221 -0.5657010388487524 1.3437040387042947 255 255 255
-0.2543823637987317 -0.4688648942512934 1.4770095801203333 255 255 255
-0.1399382361159956 -0.4422897097429271 1.4252187882587721 255 255 255
-0.1037890012335839 -0.3549201871941194 1.3978722117016544 255 255 255
0.0785436469299849 -0.3934642358556903 1.3047337877164562 255 255 255
0.1064328737190472 -0.3013006345789471 1.2848025443093505 255 255 255
0.0455634929482596 -0.2510561303923211 1.3150133267706288 255 255 255
0.0527285209776895 -0.2436495658388598 1.3078852678105015 255 255 255
-0.3323349861666942 -0.1320031478654080 1.4968884698196163 255 255 255
-0.2514675006790910 -0.1486925931068317 1.4592491074672491 255 255 255
0.1186240465147828 -0.2514774151180825 1.2772222804242048 255 255 255
0.1260763146684702 -0.2452310727544349 1.2810731763042256 255 255 255
-0.2567716201720125 -0.0919622107915239 1.4656073765685846 255 255 255
-0.2555578014089539 -0.0849608717121590 1.4636797768224410 255 255 255
-0.2770303670161567 -0.0696767543827368 1.4657842421531824 255 255 255
-0.2516923779542171 -0.0663919438611980 1.4611755198584038 255 255 255
0.1094257305672222 -0.1528832787389218 1.2003027664386101 255 255 255
0.1856104791067272 -0.0679650779154639 1.2402581341476813 255 255 255
-0.0731221545587317 0.0199990813048032 1.3725431076275214 255 255 255
-0.2446417348100658 0.1137746343065718 1.4399519893232746 255 255 255
-0.0612544239956385 0.0937965988334855 1.3561756506914726 255 255 255
-0.1664699724472190 0.1339211056889038 1.4049503324776946 255 255 255
-0.1578840922275195 0.1388039367103502 1.3981562767154969 255 255 255
0.2026049956891569 0.0369581309841003 1.1908779748249145 255 255 255
0.1972448309209582 0.0415627111743451 1.1928542571670846 255 255 255
0.2220870954690115 0.0391383645484531 1.1973150342482768 255 255 255
0.2321449634524484 0.1292865122643390 1.1803253157532314 255 255 255
-0.3925588070361865 0.3742553138926114 1.2578657994019160 255 255 255
0.0426374181311431 0.3167423085313810 1.2818892897415566 255 255 255
-0.2284329419779879 -0.6469964573219065 1.4625003136249024 255 255 255
-0.2352986170719129 -0.5610839013039852 1.4845338140815691 255 255 255
-0.3319230258041062 -0.5345595903491471 1.5277758352730411 255 255 255
0.0098745883020701 -0.5968485562071990 1.3537172751022233 255 255 255
-0.3049904359603390 -0.5174453029147790 1.5086225161992317 255 255 255
-0.2585134605503434 -0.3494184658116937 1.4767696193807738 255 255 255
0.0644339947591561 -0.4238931092496685 1.3128650467889855 255 255 255
0.0700568648642053 -0.3970216013469425 1.3120223472244685 255 255 255
0.0225815027241012 -0.3234649444192002 1.3270226341327245 255 255 255
-0.1471848072335700 -0.2594820878633080 1.4170622018203014 255 255 255
-0.1972723800735994 -0.2336869166321238 1.4382492359110106 255 255 255
0.0227946396206899 -0.2950857121091186 1.3369848952109447 255 255 255
-0.2556370287180876 -0.2096730242200522 1.4723919692609577 255 255 255
-0.0595210858894166 -0.2330731113947202 1.3651139459613795 255 255 255
-0.0821111967611676 -0.2008890516292761 1.3798656758079879 255 255 255
-0.1430094987273991 -0.1266038093299935 1.4051637107428796 255 255 255
-0.2576355840618891 -0.0878477782157545 1.4644778287207965 255 255 255
-0.1365659743724663 -0.0585506179479989 1.3944324304382789 255 255 255
0.0034497969338668 -0.0971938889410298 1.3308519785380273 255 255 255
-0.2447903587840798 -0.0183217377744400 1.4521440490394202 255 255 255
-0.0805205046352823 -0.0303128773734005 1.3656969681993079 255 255 255
-0.2414333323416121 0.0278116402629126 1.4406626267363962 255 255 255
0.1274529607240601 -0.0614486263218389 1.2636755325197102 255 255 255
0.0033481129568513 -0.0081059119763340 1.3165227528078507 255 255 255
-0.2233996995936245 0.0623283234243734 1.4361954382351900 255 255 255
-0.2081218207882092 0.0582862047386126 1.4267898770899023 255 255 255
-0.1849828917966017 0.0621148859348493 1.4218560414294679 255 255 255
0.1834868166328887 -0.0438670603186249 1.2267725111424315 255 255 255
-0.2865953789030815 0.1039346572864535 1.4824330603236504 255 255 255
0.1857664630032723 -0.0350411691872727 1.2195939930869812 255 255 255
-0.1047164115782335 0.0943479972494941 1.3793416606035072 255 255 255
-0.2145590272162550 0.1276319931118429 1.4319433540930624 255 255 255
-0.1913265952887699 0.1222723625629825 1.4182511064142336 255 255 255
-0.2318583686025945 0.1341400034806068 1.4380839108326713 255 255 255
0.1307381072117356 0.0683798687624082 1.2204312546336333 255 255 255
-0.1459465406106482 0.2431017167264629 1.3882493845194119 255 255 255
-0.0633686249315950 0.2282696368604902 1.3366264005082897 255 255 255
-0.0387131838657577 0.2200605372680218 1.3299029630556980 255 255 255
-0.0992322082948714 0.2671856285677325 1.3492005591041338 255 255 255
-0.0622834179314662 0.2843319804880509 1.3522353035161245 255 255 255
-0.1775886512449421 0.3211494597903419 1.4097271359375210 255 255 255
-0.1524192654194838 0.3128636891841070 1.3966177284933003 255 255 255
-0.0107244800299373 0.2694621314236008 1.3360096794950609 255 255 255
-0.0158392461175936 0.3039876423239967 1.3278855211327283 255 255 255
-0.1457119063556851 0.3483086439803670 1.3915565074014875 255 255 255
-0.1073038049729540 -0.4493406735904202 1.4025130580726675 255 255 255
-0.2973118289467286 -0.3948574835652545 1.5154553864572717 255 255 255
-0.3047904576215146 -0.3258510772845069 1.5013260957624137 255 255 255
0.0958453998887379 -0.3335779170664104 1.2906086022249781 255 255 255
-0.1605190072681316 -0.2427725087208036 1.4182093362566059 255 255 255
-0.3324558919314669 -0.1321601522157838 1.4986013420926199 255 255 255
-0.3214205577589628 -0.1115443583968211 1.4957497311965660 255 255 255
-0.0039951538115259 -0.1471287201103588 1.3478174722551213 255 255 255
0.1683699516038359 -0.0941974645746999 1.2361497566126722 255 255 255
-0.0066292910331753 -0.0165935570199309 1.3246568841082764 255 255 255
-0.1959788169748244 0.1274404150956958 1.4312648568073314 255 255 255
-0.1208378744823220 0.1197972638023393 1.3785204754401090 255 255 255
-0.2427441218313415 -0.6457638979247466 1.4642615233085117 255 255 255
0.0074121348693641 -0.6450994835501316 1.4084021708509153 255 255 255
-0.0116235293955267 -0.5553923392034728 1.3627971688359484 255 255 255
0.0011741881039242 -0.5379132509741069 1.3506486861492846 255 255 255
-0.0125855019961083 -0.5419182969378200 1.3698882307360272 255 255 255
-0.3136423858680795 -0.4503551340178369 1.5149961067307149 255 255 255
-0.3050947386877754 -0.3788962865852605 1.4918852944020031 255 255 255
-0.2170173806443021 -0.3990468336530908 1.4567141409928768 255 255 255
0.0160870484209994 -0.3852520127730870 1.3352644647959835 255 255 255
-0.1959009297153864 -0.2338660125644241 1.4372900613935489 255 255 255
-0.2757674675301782 -0.2155327982281321 1.4860354695582600 255 255 255
-0.2805553536901328 -0.2012461982993248 1.4833584300587539 255 255 255
-0.1756686777221511 -0.2172090596532062 1.4263968478922004 255 255 255
0.1054958756114530 -0.2866972000944870 1.2900329263302837 255 255 255
0.1080863638445093 -0.2684573950702331 1.2825571340080932 255 255 255
-0.2732582246037802 -0.1536478583137315 1.4748637208263506 255 255 255
-0.0624329466201692 -0.2075877053475876 1.3701913462101603 255 255 255
0.0494917421727301 -0.1960721114384825 1.3121841351208801 255 255 255
-0.1304158832596136 -0.1142323003271255 1.3947267056670205 255 255 255
-0.2754634830673295 -0.0728840183691819 1.4742323001822371 255 255 255
-0.1519681403585107 -0.0993804371841707 1.4109870542126410 255 255 255
-0.0220509975635664 -0.0858302374493608 1.3369292170333931 255 255 255
-0.3074247859829770 0.0112595170489215 1.4740330095051160 255 255 255
-0.2007459375226647 -0.0204277399514067 1.4259952906560063 255 255 255
-0.0345975666875109 -0.0608140302853991 1.3451306918540655 255 255 255
0.1523344210411093 -0.0812370512057221 1.2428047808635601 255 255 255
-0.0901009000169560 -0.0046962939665098 1.3753329538625736 255 255 255
-0.1790752373583189 0.0267171020443602 1.4133398048304127 255 255 255
0.0946866089483009 -0.0404481895235111 1.2766591416092830 255 255 255
0.0311754563195539 -0.0199768656517900 1.3135542121062374 255 255 255
-0.4740817622920495 0.1913215988310779 1.3118906271859068 255 255 255
0.0027841315835010 0.0345150438195958 1.2966098353275772 255 255 255
-0.1897161589117515 0.1231522700941123 1.4165573720927540 255 255 255
-0.1970699887302274 0.1288264129220293 1.4482223089734605 255 255 255
0.1620210386809484 0.0265546951102094 1.2421921581306030 255 255 255
0.2081741231318261 0.0262922471673632 1.2068397921831382 255 255 255
-0.2833634754827722 0.2012725237136440 1.4414583884551919 255 255 255
-0.0683936593029852 0.1849396008422610 1.3574430954566212 255 255 255
-0.0956326254229118 0.2658302277439214 1.3576006879214351 255 255 255
-0.1835511930831579 0.3149162078967578 1.4185422390219209 255 255 255
-0.1356649389823072 0.3093070315644408 1.3924543041271171 255 255 255
0.2510590494615572 0.1900508281836106 1.1786123314677832 255 255 255
-0.1904429002771426 0.3437796676995259 1.4122104772445621 255 255 255
-0.0221116686631205 0.3129875574870614 1.3283649073194095 255 255 255
-0.0320809087971838 -0.6003227112401710 1.3771866599293041 255 255 255
-0.1601241543684644 -0.5555250069659321 1.4307893193611561 255 255 255
0.0242342410283669 -0.4951379269949623 1.3449548262581779 255 255 255
-0.0417495251920919 -0.3358895206316017 1.3661465141478519 255 255 255
-0.3314767856007387 -0.1688665593769136 1.4985707111972886 255 255 255
-0.0931263439931969 -0.1937607526489908 1.3818742248686009 255 255 255
0.1505466340357309 -0.1307100263144623 1.2568903177703667 255 255 255
0.1360654986649559 -0.0878301032055351 1.2595851024957256 255 255 255
0.0530633228736033 0.0256953476137729 1.2945355929200195 255 255 255
-0.1916852355585159 0.1052226983190070 1.4149099837152246 255 255 255
-0.1819520444389937 0.1228712326800392 1.4132483425784357 255 255 255
-0.2468756469320361 0.2205813554058099 1.4270665261212203 255 255 255
-0.1718535973250986 0.2094671523666766 1.4034389211621008 255 255 255
0.0725444789601706 0.2098674563565729 1.2773405178996873 255 255 255
0.0615036425979767 0.2743611566102011 1.2814282258316041 255 255 255
-0.1018348910186383 0.1756080093903256 1.3663416379381597 255 255 255
0.2291126321607484 0.0884583433839459 1.1943741320960637 255 255 255
0.0088058896056626 -0.5847785354928927 1.3577692648492636 255 255 255
0.0694239024771881 -0.3382061360627926 1.3081122361936890 255 255 255
-0.3408024272169817 -0.1944948519610181 1.5106227101864249 255 255 255
0.0921957446743447 -0.2691880063802126 1.2939859795156106 255 255 255
0.0605228190718914 -0.2370568457522069 1.3091732758072339 255 255 255
0.1233933950655821 -0.1968584001998250 1.2686631683476901 255 255 255
-0.0466809598573255 -0.1074045461911589 1.3541968662394366 255 255 255
0.1553186395352295 -0.1545021549670986 1.2549164102456736 255 255 255
-0.1679173207312706 -0.0007856850171462 1.3995154037440614 255 255 255
0.1398075236105525 -0.0878709724155291 1.2565143971406414 255 255 255
0.1786107945772746 -0.0844789613691022 1.2256627221104501 255 255 255
-0.1888143543973126 0.0991904005999920 1.4140684277691635 255 255 255
-0.1827795144848245 0.1211824288540644 1.4166894737076294 255 255 255
-0.1942247879514412 0.3057857546233707 1.4108741668877425 255 255 255
0.1781235265606806 0.2126539112878421 1.2270601176877820 255 255 255
0.0012214659509602 -0.0134350248798802 1.3280741577779107 255 255 255
-0.0474441875859579 -0.1069786701662840 1.3562633196798792 255 255 255
-0.1090744239686962 0.0610685217877322 1.4215326182518297 255 255 255
-0.1761138791923571 0.1298325029428371 1.4159308170062310 255 255 255
0.2142662271467373 0.0467130186872211 1.2136533071698992 255 255 255
-0.1407200450591235 -0.5680656061198697 1.4293252331946462 255 255 255
0.1433081791190620 -0.2593446841794353 1.2981824359996672 255 255 255
-0.1992135996856526 0.0100053441481256 1.4260949828285057 255 255 255
0.1934968715975227 -0.0609875902211954 1.2021828072175342 255 255 255
-0.1185112052701798 -0.4783946724177550 1.4137227587122076 255 255 255
-0.0418488674108368 -0.7012991156287239 1.3710739299355412 255 255 255
-0.2968861463291019 -0.4951602396223436 1.5041568801296603 255 255 255
-0.1083317894758622 -0.5532495513642317 1.4153294825725027 255 255 255
-0.2035246353588427 -0.4761450845227948 1.4590862451356692 255 255 255
-0.1082941188827538 -0.4481955196747336 1.4034152439858172 255 255 255
-0.3122963048773819 -0.3880643986714745 1.5156549658808451 255 255 255
-0.1111849758147763 -0.4434235898969678 1.4091415378168151 255 255 255
-0.2378904973599347 -0.3844240591779737 1.4649781032042313 255 255 255
-0.0077457952472741 -0.4244984643818697 1.3582854768205124 255 255 255
0.0379494131692439 -0.3936136286548049 1.3310602849994240 255 255 255
-0.3173839252452471 -0.2641370294784089 1.4925083869720677 255 255 255
-0.2805829952377934 -0.2319211506469010 1.5124388386377490 255 255 255
-0.3018391558424121 -0.2036377321845428 1.4896074102233143 255 255 255
0.1152647043854369 -0.2640723440163648 1.2806934104475465 255 255 255
0.1184740868659730 -0.2580145953986772 1.2741401957159084 255 255 255
0.0636863389280796 -0.1723788161258415 1.2864470893756610 255 255 255
0.1475034564160298 -0.1632319784823455 1.2541057301682681 255 255 255
-0.2416508821342616 -0.0158388609002089 1.4530634181244686 255 255 255
-0.1982528730748641 -0.0082987924313018 1.4321631548105955 255 255 255
-0.1014021834819179 0.0244120586515866 1.3748799413341146 255 255 255
-0.1291430584169309 0.1541468761492570 1.3603616499592217 255 255 255
0.1292415558510471 0.0704296237243199 1.2293275511215507 255 255 255
-0.2767919709827339 0.2134340533783797 1.4549950722464446 255 255 255
-0.3854940933002959 0.4018021909504977 1.2461079942038040 255 255 255
-0.3286257160596584 -0.6218339633089336 1.5069645553311588 255 255 255
-0.3520151246557592 -0.6061668869301080 1.5189876120263079 255 255 255
-0.4171974184354714 -0.5898144798433176 1.5600962167204129 255 255 255
-0.2572700034073305 -0.5262903373110093 1.4814421981796464 255 255 255
-0.2012468791909114 -0.4635940196663277 1.4536879881064984 255 255 255
-0.0764161621310731 -0.4550636980239524 1.3916587557964757 255 255 255
-0.3233111594432128 -0.3293428044284159 1.5122201797706314 255 255 255
-0.3163397944060620 -0.3089640911660041 1.5013511967825650 255 255 255
-0.1761157807993428 -0.3068020989199880 1.4326828141345089 255 255 255
-0.3043308468765164 -0.2624660178422926 1.4993895444251724 255 255 255
0.0054224736755413 -0.3619417412847019 1.3423335847771818 255 255 255
-0.2665807472735580 -0.2746734560912127 1.4847750457317579 255 255 255
-0.1594961238537975 -0.3029217417318780 1.4252324314079496 255 255 255
-0.2980266190464844 -0.2147409119701571 1.4881956178305575 255 255 255
0.0236763969261489 -0.3042841213405367 1.3329389676572916 255 255 255
-0.2429012971310911 -0.1970504720124193 1.4570020441880001 255 255 255
-0.2273050713109246 -0.1579307229359008 1.4516992526568391 255 255 255
-0.1230459736172613 -0.1652565030568973 1.3959983190760514 255 255 255
-0.2682399526043246 -0.0497720603442660 1.4620531378747303 255 255 255
-0.2586033486209729 -0.0161853858053611 1.4636174760268847 255 255 255
-0.0322958496368200 -0.0852010532529413 1.3529929964130067 255 255 255
0.0727130652068109 -0.1182449268246906 1.3007432296914132 255 255 255
0.1076349387709550 -0.1305904248314676 1.2789809517638366 255 255 255
-0.2010921558006540 -0.0103638556044328 1.4317396745661854 255 255 255
-0.0906541014833122 -0.0031686308236957 1.3728460832299789 255 255 255
-0.0012410669054379 -0.0009706183637466 1.3232457959305624 255 255 255
-0.0917016296393491 0.0333104181718995 1.3787856633330779 255 255 255
-0.4737578551264843 0.2103022659421105 1.3070935079251988 255 255 255
0.1902040686229061 -0.0281140938874795 1.2227497265246239 255 255 255
-0.0397262458879403 0.0750857566837867 1.3846545210842609 255 255 255
-0.2253731431661448 0.1689618267470769 1.4340860152252257 255 255 255
-0.1831411888535404 0.1558347540331311 1.4161784020520063 255 255 255
-0.1053846153363907 0.1311887358093760 1.3927340149470169 255 255 255
0.1621825405839517 0.0439990298094503 1.2437923934087158 255 255 255
-0.2154961458794573 0.2304378099580453 1.4233695282109728 255 255 255
-0.1868601257274651 0.3600259742729077 1.4098344736915642 255 255 255
-0.1235041818959548 0.3699085829359489 1.3664171692493952 255 255 255
-0.1120296310934719 0.3661424159356558 1.3587498818095614 255 255 255
0.2052911464690155 0.2618613969733614 1.2014316995090013 255 255 255
-0.2907944743635404 -0.6157392967512862 1.4939302145611606 255 255 255
-0.1442847934012965 -0.5881597821018580 1.4401192260361118 255 255 255
-0.2031463347433107 -0.2173235189235498 1.4382981232962244 255 255 255
0.1401154082161190 0.0908910561804237 1.2377929665613339 255 255 255
0.2160696993235955 0.0708166165889619 1.2002140273045385 255 255 255
-0.0754538149497535 0.2896606847279344 1.3584143534570785 255 255 255
-0.0610869167993364 0.3574694895644723 1.3347409443368186 255 255 255
-0.4026082714987300 -0.6437754842944372 1.6201718085379468 255 255 255
-0.0098072256451296 -0.6642136549657103 1.4371154613894710 255 255 255
-0.3248477133016567 -0.4998415963871135 1.5200782564586033 255 255 255
-0.1095449403425093 -0.5541511258404199 1.4152911668482115 255 255 255
-0.2978340575265157 -0.4562130270704348 1.5056007930782604 255 255 255
-0.3155500646849361 -0.3540914282380196 1.5091779724545171 255 255 255
-0.0761037734037475 -0.4004964672691566 1.3819056386291837 255 255 255
0.0715548686472527 -0.3971985156012181 1.3132618047607281 255 255 255
-0.1762689680049192 -0.2422059169471558 1.4312580559808215 255 255 255
0.0609199662012880 -0.3170459116531976 1.3158957835264271 255 255 255
-0.0575272729088737 -0.2365914331702342 1.3677898545209075 255 255 255
-0.1594245667824090 -0.1541704564761361 1.4171819969062112 255 255 255
-0.1228977233049042 -0.1641352355614455 1.3959749571416942 255 255 255
-0.1504238884000977 -0.1070748822698748 1.4058370067566528 255 255 255
0.1171674453625879 -0.1238590339810055 1.2739196306991509 255 255 255
-0.0812662263869888 0.0184800033137892 1.3629686221612940 255 255 255
-0.4768698233792641 0.1832324677870965 1.3067246420389900 255 255 255
-0.0906707061596531 0.0314347247521276 1.3785791931382223 255 255 255
-0.4754823684237284 0.2116803521585100 1.3021402198384440 255 255 255
0.0362542613900081 0.0514978322073835 1.2984436918249354 255 255 255
-0.0552958932142289 0.0981065818432532 1.3521506375800332 255 255 255
0.0117802923329977 0.0902837329022916 1.3222343251551063 255 255 255
0.0359559168133470 0.0828830979304919 1.3008987384152952 255 255 255
0.1175465673053931 0.0554319403515117 1.2626131440814996 255 255 255
0.1719569868846129 0.0520804304418809 1.2405286179712922 255 255 255
-0.0124156229189278 0.1157047954906689 1.2992605056182533 255 255 255
0.0308098575624474 0.1002360692783504 1.2842872816949216 255 255 255
-0.2792087669205020 0.2234947201046998 1.4390271350726973 255 255 255
-0.1172907532732790 0.1969379662119604 1.3703267516483457 255 255 255
0.0533027331547231 0.1908231867688137 1.2888585538334993 255 255 255
-0.0566511709492321 0.2437780536556025 1.3418863495382265 255 255 255
-0.2537929230502347 0.3250498975867357 1.4187423441399181 255 255 255
-0.0077990857178420 0.2692297082802471 1.3443252584263305 255 255 255
0.1116507442124197 0.2433818997811656 1.2460634230401357 255 255 255
-0.2018755588013068 0.3726716212206309 1.4022375786477053 255 255 255
-0.1232795065073464 0.3690874078616744 1.3683194911197463 255 255 255
-0.2654181191335718 -0.1040631156953884 1.4671342507610756 255 255 255
-0.4775302909718051 0.2033187373999419 1.2749365721755401 255 255 255
-0.0720134362771957 0.0882741237402628 1.3591305428842748 255 255 255
-0.1772826531994689 0.1510912259907961 1.4099684820980807 255 255 255
-0.1025674729379435 0.1280002936853490 1.3793008994877933 255 255 255
0.1351490983954591 0.0504942809365767 1.2389535977378219 255 255 255
0.2093172307338005 0.1982639089876104 1.2112649015651620 255 255 255
0.0192088352915458 -0.6059056964733884 1.3705106279125443 255 255 255
0.0713147140997927 -0.3993673597726506 1.3100649580946859 255 255 255
-0.2011500074990906 -0.0186153642448885 1.4225699755400769 255 255 255
-0.0222511706480248 -0.6302341990624996 1.3706625980646248 255 255 255
-0.0764379822269925 -0.5243475289444071 1.3907504186899100 255 255 255
-0.3068094434705415 -0.2639055793880942 1.6485925687907539 255 255 255
-0.2843814213836637 -0.1767022729951755 1.4777176320866907 255 255 255
0.1792111919385917 -0.1000777124975887 1.2338131269683892 255 255 255
-0.4695833253449093 0.1987442107640565 1.3043844672980995 255 255 255
0.1815444867709033 -0.0426373650316059 1.2308925994204216 255 255 255
-0.0809095831109738 0.0661778987414814 1.3587283829297512 255 255 255
0.0957078605325024 0.0078053956134967 1.2712232335618541 255 255 255
0.0776088777604755 0.0609271914564576 1.2684179625510765 255 255 255
0.1135586380254097 0.1066310157456840 1.2438191742669389 255 255 255
0.0654276037507531 0.2507176425226678 1.2855198648079753 255 255 255
0.0241793126489362 -0.5309668676243806 1.3542723764453584 255 255 255
-0.0566213231911625 -0.2352098888909637 1.3291871032673681 255 255 255
0.0489899577092636 -0.1404370922624523 1.2982319698982465 255 255 255
-0.1013134163127227 0.1720755878157416 1.3585498491202541 255 255 255
-0.0778500478502693 -0.5179878001585685 1.3862096759486597 255 255 255
0.0495589548036435 -0.4727315448510083 1.3262832000391001 255 255 255
0.1150418565261120 0.1397578472663152 1.2431365417461606 255 255 255
0.0299200459736468 -0.5564250814371725 1.3824691675769110 255 255 255
-0.3605059936362545 0.1835326597324340 1.4423195108792335 255 255 255
-0.4618391004050501 0.2712789963164920 1.2768724373488518 255 255 255
-0.3992738988780324 0.2752805077753764 1.2813962013590015 255 255 255
0.1297916100374561 -0.2092088826324743 1.2797824332641126 255 255 255
-0.0163291578792197 -0.5765948923826656 1.3673431823886304 255 255 255
0.0228948246231013 -0.5710606756497043 1.3406195126751363 255 255 255
-0.2380230505759329 -0.4102924754191024 1.4676768721043620 255 255 255
-0.3228806989794357 -0.4411307806038032 1.6745751682378369 255 255 255
-0.3077896464206340 -0.2496579388539182 1.4918741092683323 255 255 255
0.0907026022794781 -0.3523058510054815 1.2953750434971347 255 255 255
-0.1966255751829706 -0.3673267965089426 1.9361569125925371 255 255 255
-0.0631421019380731 -0.1369237979159310 1.3677632366811512 255 255 255
0.0342040554441851 -0.1670741729837033 1.3137064069269329 255 255 255
-0.1339678863272837 -0.0609084406887561 1.3986374854968844 255 255 255
0.1142256217877922 -0.1304321048916783 1.2808145296131386 255 255 255
0.1603042451069285 -0.1198614982079498 1.2490694982028216 255 255 255
-0.1454637585356835 0.0165612621570066 1.3959086684212423 255 255 255
0.1046617890694854 -0.0640179403044789 1.2708452573320113 255 255 255
-0.1416988974339564 0.0375509575057649 1.3929958377495115 255 255 255
-0.0079929366348850 0.0003005767863833 1.3367238776274348 255 255 255
-0.2133671830201926 0.0750680197057640 1.4299777018904649 255 255 255
-0.0066094667844574 0.0073574463306247 1.3354831669775464 255 255 255
0.1935317673751484 -0.0102846190481003 1.2232847116617904 255 255 255
0.2048551407853096 -0.0150990132422663 1.2247493321580070 255 255 255
-0.1202412767009522 0.1769285605524188 1.3648390158262220 255 255 255
-0.1482426954719223 -0.6729205305063950 1.4193838331603996 255 255 255
0.0050671624764647 -0.6882403115297144 1.3706775064313064 255 255 255
0.0014556412473645 -0.6520244185392983 1.3592730032783180 255 255 255
-0.1676101152541207 -0.5507832477191243 1.4335951635823427 255 255 255
-0.0621007217672835 -0.5396892252832470 1.3872324404322436 255 255 255
-0.1793970937970553 -0.4749478806326651 1.4323245464799315 255 255 255
-0.1482597194874341 -0.4355387734227005 1.4280946728170134 255 255 255
-0.3009699589167525 -0.3136369172081981 1.4939191759720032 255 255 255
0.1533424325701773 -0.5833229416668075 1.5092938722401232 255 255 255
0.0101198524308153 -0.4332794555030297 1.3392587954821682 255 255 255
-0.1814994940239236 -0.2906242112968433 1.4288730278361212 255 255 255
-0.2075267090556165 -0.2779819698562687 1.4438845075332640 255 255 255
-0.2432099860960051 -0.2127401517793963 1.4651522620796351 255 255 255
-0.2444080597217173 -0.1645939689086582 1.4675367386169036 255 255 255
-0.2648492455750331 -0.1214391150870613 1.4652590648631856 255 255 255
0.0540047929972758 -0.1864380556056915 1.3142575273802919 255 255 255
0.0130272559264553 -0.0893823782511047 1.3278618763220313 255 255 255
-0.1341356822242499 -0.0302526211649249 1.3997170654593876 255 255 255
-0.0064796194520375 -0.0603194867564709 1.3293725938745813 255 255 255
0.0926117207003472 -0.0506007302678881 1.2866000716256103 255 255 255
-0.4763140062027258 0.1831292001515923 1.3048075404194428 255 255 255
0.1927445436687147 -0.0839640047451446 1.3060314395880326 255 255 255
-0.0055512835602247 0.0033181934580568 1.3395059098987465 255 255 255
0.0334542396790383 -0.0087210416565213 1.3190960876728113 255 255 255
-0.2441284754925270 0.0937985822130081 1.4322787530626861 255 255 255
-0.2346831616839928 0.1252132508523909 1.4348022799655844 255 255 255
-0.0854239070201857 0.1085689166609995 1.3540138013649958 255 255 255
-0.0605306720239052 0.1124932553708944 1.3555199875677084 255 255 255
-0.2096418653827408 0.1644271878615652 1.4248324937091343 255 255 255
-0.1350817347757115 0.1789222081818884 1.3698815000624367 255 255 255
0.0114861935535204 0.1599444857819545 1.3119291403742235 255 255 255
