ply
format ascii 1.0
element vertex 680
property double x
property double y
property double z
property uchar red
property uchar green
property uchar blue
end_header
0.2164784906284449 -0.1698650112084006 0.9696406770350361 255 255 255
0.0572036643959863 -0.1849063114251297 1.0296379622230882 255 255 255
0.0427824840896782 -0.1563925239243273 1.0409087039138072 255 255 255
0.0155752268330129 -0.0843641361556599 1.0685257658003833 255 255 255
-0.1924302973228684 -0.1019316365772299 1.1414879096810253 255 255 255
-0.1209893329004554 -0.0849194028724595 1.1198569382571053 255 255 255
0.0230916515613142 -0.0443608298551907 1.0704359345145367 255 255 255
0.2225008117129015 0.0237246442817323 1.0162053384782226 255 255 255
-0.1946948646079631 -0.0009634985758630 1.7520056526235039 255 255 255
0.0470631709027720 0.1250755651382986 1.1189984887093991 255 255 255
-0.0805458228716498 0.1117052484963215 1.1613202963656590 255 255 255
-0.2505848385426610 0.1312766150633413 1.2204255513856346 255 255 255
0.1370689889508885 0.1885769623971423 1.0902037440740919 255 255 255
0.0064730724566537 0.1913803815159252 1.1411453885092584 255 255 255
-0.1230675029090396 0.1940662873497025 1.1924054610416270 255 255 255
-0.1052611042028406 0.2914608725377930 1.2022653275725350 255 255 255
-0.1516410426876384 0.2988634282005422 1.2181922229054098 255 255 255
-0.1272431850148479 0.3440711731299295 1.2293624431272843 255 255 255
-0.2438080820748922 0.3647328675982746 1.2727406403534518 255 255 255
-0.0859380884623810 0.4167569745812862 1.2387366658754928 255 255 255
-0.1045061392208471 0.4426418815332500 1.2432942594540108 255 255 255
-0.1518603403992203 0.4347302407296030 1.2577739235197014 255 255 255
-0.2773146928629311 0.4601831835899342 1.3074903366066692 255 255 255
-0.2532134802992818 0.5367547797428855 1.2949652932396170 255 255 255
0.2281038736984176 -0.3506204701427003 0.8930673723799285 255 255 255
-0.2081814054300537 -0.3072526117362906 1.1020863991812284 255 255 255
-0.0415309365415508 -0.2676673657936706 1.0359759729475551 255 255 255
-0.0279488128888250 -0.2564344133226413 1.0313029283739752 255 255 255
-0.2598630675566032 -0.1905441701662039 1.1495331959509785 255 255 255
0.1756919692542498 -0.0531705898686880 1.0137985579698272 255 255 255
-0.0988566569612064 0.0689871419147837 1.1471538655996021 255 255 255
0.0371125537406165 0.1985210139527682 1.1341832452458931 255 255 255
-0.1003363449491346 0.2227445202765246 1.1883801078419118 255 255 255
-0.0818146772695680 0.2262405498174305 1.1820717987784803 255 255 255
-0.2114162133540036 0.2131890577985258 1.2292759732815890 255 255 255
-0.1311143454368162 0.4702030627692864 1.2614968167694385 255 255 255
0.2099273841175293 0.6206105551538368 1.1744444181940281 255 255 255
-0.1945832824270746 0.5293134018130601 1.2193022637135646 255 255 255
0.1630178536487508 0.6284251056273051 1.1935912260496853 255 255 255
-0.2028769964127304 -0.4306095531073896 1.0339639474409277 255 255 255
-0.1577515458597079 -0.4023565533256123 1.0188899387048167 255 255 255
0.0110520534204044 0.1626673337245077 1.1291693287113505 255 255 255
-0.0934040601755743 0.2051408866914928 1.1794000552576627 255 255 255
0.0317599250402871 0.2706696370547910 1.1424871408238957 255 255 255
-0.2470189095331707 -0.4394061452017559 1.0551765444181900 255 255 255
0.2244332480580400 -0.4110827760110428 0.9564597526732113 255 255 255
-0.0732673055265556 -0.4181104946971637 1.0327272252633177 255 255 255
0.0787939311229486 -0.3924937246762510 0.9573945069826211 255 255 255
-0.1430393684295908 -0.3994382189822403 1.0289377870606415 255 255 255
-0.1308697213615276 -0.3980568865533509 1.0254738312661336 255 255 255
-0.2174163357490446 -0.3900845850684824 1.0594145282585288 255 255 255
0.0407571943495005 -0.2584791556634473 1.0059718250546936 255 255 255
0.2211010892398662 0.1223410285759661 1.0388193650341861 255 255 255
0.2153937569571633 -0.2010487486545781 0.9659720810628676 255 255 255
0.1951003823530296 -0.0735576929180259 1.0058346458785667 255 255 255
-0.2610711966889863 -0.0888180282626606 1.1635572242144843 255 255 255
0.0915696792526166 -0.0183771483197652 1.0554060823875986 255 255 255
-0.0485402234001587 0.0037615431480027 1.1143406257524084 255 255 255
0.2330401642194246 0.0701349799075347 1.0439971149311718 255 255 255
0.2324159248165589 -0.4060701334608705 0.9725770858531924 255 255 255
-0.2656614889261748 -0.4124089514854621 1.0709781140786756 255 255 255
0.0710010897897000 -0.3812905373489026 0.9695550192103770 255 255 255
0.2497764005975185 -0.4691180140508253 1.2018099397134270 255 255 255
0.0329555314451366 -0.3087732744790955 1.0168533733999159 255 255 255
-0.2472901928649449 -0.2199897675018100 1.1359497917918153 255 255 255
-0.2227388813805531 -0.2172031848589945 1.1274920690993007 255 255 255
0.1327982132656391 -0.0810910053878755 1.0352288706644259 255 255 255
0.2158523475386929 -0.0468250071243068 1.0021345653573057 255 255 255
0.2270430333136186 -0.0346136909176866 1.0012303465708019 255 255 255
-0.3031965305734925 -0.0993573382080314 1.1782056610277545 255 255 255
-0.1206284197712142 -0.1151233802072628 1.7452811432243385 255 255 255
0.0070479602097659 -0.0394408074370974 1.0840817448139592 255 255 255
-0.3110987632828659 -0.0732230440949868 1.1898650773701867 255 255 255
-0.2327098594544390 -0.0474111035765303 1.1660121632043725 255 255 255
0.2247044765043373 0.0784520840270033 1.0314416452132313 255 255 255
-0.0261120801360910 0.0501833828178144 1.1151638333017431 255 255 255
-0.1235823789591546 0.0470874857693326 1.1600559725039155 255 255 255
-0.0782898977485154 0.1155526823181445 1.1592516467674994 255 255 255
-0.1248442348923042 0.1108920520430030 1.1746150018031267 255 255 255
-0.1250612704198382 0.1230273126200752 1.1783039267520756 255 255 255
0.2192652645718312 0.2075030747214148 1.0570348891263652 255 255 255
-0.0810118649354337 0.2671839556875764 1.1962839326956853 255 255 255
-0.0414133527907339 0.2801709151400349 1.1764492390678853 255 255 255
-0.1662225478731507 0.4070849954584155 1.8385196530365846 255 255 255
-0.1556109851801590 0.4642290467033945 1.8855230171115216 255 255 255
-0.2079559153610564 0.4233339056426342 1.2856724605729539 255 255 255
0.2123671562930847 0.6727656133237683 1.1805158663489523 255 255 255
-0.3254329041812193 -0.4386319662247784 1.0833543719439316 255 255 255
-0.3356771132706596 -0.4380996244759388 1.1032200215840828 255 255 255
0.2292513861675549 -0.3024594812024916 0.9328813820088557 255 255 255
-0.1237653738715854 -0.4300733652359157 1.6776839469209679 255 255 255
-0.1159407694508126 -0.2632768486885331 1.0706197754325792 255 255 255
0.1840460571723099 -0.2221558651513420 0.9701386813047979 255 255 255
0.2312259363608338 -0.2194127453494063 0.9443187404550887 255 255 255
-0.1590592469621762 -0.2487158547303820 1.0869657806198074 255 255 255
-0.1944716233651604 -0.2006723604491587 1.1094374448945210 255 255 255
-0.1271314920597000 -0.1743212599961925 1.1045871530254843 255 255 255
-0.1419237022693167 -0.1653156101758059 1.1006943052188234 255 255 255
-0.0781541827122875 -0.1225352123137859 1.0991366688173243 255 255 255
-0.1212655696754004 -0.1204477096780380 1.1205394318108421 255 255 255
-0.2052165249514157 -0.1138652464292996 1.1480999444505073 255 255 255
-0.2512548672658557 -0.1119485916426432 1.1663048318753508 255 255 255
0.1306463303294656 -0.0188183644936779 1.0502273483919868 255 255 255
-0.1239303397628415 -0.0433444122217523 1.1364494155939084 255 255 255
0.1477110283917984 0.0143192928154353 1.0406264932180007 255 255 255
-0.2045306393864337 -0.0366278158885307 1.1687871759148329 255 255 255
0.1495463491352434 0.0460564101985141 1.0483238100539531 255 255 255
0.0500742680977837 0.0591756132724844 1.0927306419953542 255 255 255
-0.1258243489012827 0.0306207668901053 1.7849114015133247 255 255 255
-0.1497884955146072 0.0373128834041960 1.1583044843749639 255 255 255
0.1767592599567607 0.1390277455751194 1.0747645712841809 255 255 255
0.0493310867918666 0.1258635464761335 1.1178879666504100 255 255 255
0.1026087010182177 0.1395642529680825 1.0918006610832709 255 255 255
0.0508623357166726 0.1364271289268109 1.1137549803624438 255 255 255
-0.1297268615496421 0.1066295304483195 1.1699561226868682 255 255 255
-0.2532081107354802 0.0957515349384470 1.2170611535163518 255 255 255
-0.1289868801677472 0.2033725083778572 1.1978145886549314 255 255 255
-0.2320564355483263 0.2035583939499084 1.2296035203490838 255 255 255
-0.2881770912147454 0.3113533030340320 1.4143386120940302 255 255 255
-0.1628028920220477 0.3656044146514200 1.2394613805185708 255 255 255
-0.3115780464829836 0.4486668336538671 1.3502706155706505 255 255 255
0.0779287908646049 0.5703202533830383 1.1833710458484874 255 255 255
0.1697022805158834 0.7427569938350178 1.2205389345745861 255 255 255
-0.1483996576780520 -0.4000220368701033 1.0325418251460547 255 255 255
-0.0155762251188305 -0.3782710909091633 0.9866687411266577 255 255 255
0.2276621725290888 -0.3313582331207304 0.8978914872112908 255 255 255
0.2318073937135722 -0.2460354843704898 0.9386567903981706 255 255 255
-0.1438817469886331 -0.2288555848280561 1.0872087086261963 255 255 255
0.2210446807277568 0.0522335837793149 1.0213756312034281 255 255 255
-0.0517393799934220 0.1546610914129900 1.1509578886809644 255 255 255
-0.1277565551431366 0.3439859705158086 1.8633763849211205 255 255 255
0.2204546310816418 0.4247496465612879 1.1134986753558587 255 255 255
0.2159894962361584 0.5303706676931226 1.1456985265356860 255 255 255
-0.2398703717785224 0.5579829686745281 1.6642147077706078 255 255 255
-0.2161726133205826 -0.4212593052535338 1.0501895335502218 255 255 255
-0.3223040231505816 -0.4288424975461083 1.0953998619747984 255 255 255
0.0965278771359296 -0.3938738664038447 0.9325479997218584 255 255 255
-0.2321430235155724 -0.5254173728998397 1.4109385463883082 255 255 255
-0.2708879403873974 -0.4062785187547975 1.0766648724378094 255 255 255
0.0633816368368150 -0.3675595742825999 0.9524297676725784 255 255 255
0.0396317310372218 -0.2324038716404693 1.0214386873578487 255 255 255
0.0062936220522936 -0.2294458592017081 1.0379593474783917 255 255 255
-0.2222733388266713 -0.1921807813006393 1.1341523361318888 255 255 255
-0.1299784271257636 -0.1746621878397483 1.1038893324960029 255 255 255
-0.1184536624667603 -0.1116755069857358 1.1164128177788148 255 255 255
-0.2448323404004400 -0.1243312443833285 1.1606274066970164 255 255 255
-0.1462992469879718 -0.0924573731898209 1.1272566435439377 255 255 255
0.2294017002965987 -0.0343942248193750 1.0013486201320971 255 255 255
0.1390426914147707 -0.0000709978522503 1.0389295917553785 255 255 255
-0.0951884335006912 -0.0219583552781968 1.1312701349267265 255 255 255
0.1377979328761720 0.0406462049357224 1.0526200586429497 255 255 255
-0.0277804610878611 0.0495887892514579 1.1124244316531460 255 255 255
-0.1218466384077190 0.1176234556462475 1.1719292959830296 255 255 255
-0.1518490066243143 0.1884749606722362 1.1965735272651101 255 255 255
-0.2602242244773474 0.3979299718808815 1.2923402539477484 255 255 255
0.1578200208881868 0.5220327567213812 1.1648627499139481 255 255 255
-0.1320488283633914 0.4664198967756690 1.2550992906644396 255 255 255
0.0790693402367850 0.5705508109223967 1.1852782216160023 255 255 255
-0.0333127673477716 0.5786744404631694 1.2345436024356040 255 255 255
0.0388239367786483 0.6146563636168878 1.2379821756580256 255 255 255
-0.0275143592493095 0.6025829508824749 1.2518698503115253 255 255 255
0.1315795094417851 0.6817781606092517 1.2098393594969536 255 255 255
0.0195172431609336 0.6628081735990996 1.2495553488185251 255 255 255
0.1638697594837151 0.7125597999049802 1.2199178107458302 255 255 255
-0.0288931384248969 0.6548706824660870 1.2647692134205322 255 255 255
-0.2867581027840058 -0.4430825802722453 1.0684304847864325 255 255 255
0.2180464643945532 -0.3626760816009041 0.8993335025191632 255 255 255
-0.0265765380433853 -0.1353046057668041 1.0718664601028696 255 255 255
-0.2766880260214002 -0.1663117971064370 1.1532062664842329 255 255 255
-0.1089639522213859 -0.0698666559020438 1.1146791483204490 255 255 255
0.0382902107005257 -0.0301220801329571 1.0734072750684123 255 255 255
-0.1362720372654174 -0.0261353180687731 1.1344387132170066 255 255 255
0.0365742782105275 0.0081136463922856 1.0861888221109171 255 255 255
0.1041889967623959 0.0870828071077501 1.0743372086702383 255 255 255
0.1733587788733379 0.1755129035536719 1.0818198894791919 255 255 255
-0.1477482097569727 0.2390427148034870 1.2085654506768693 255 255 255
0.2173378348562096 0.5005465233036084 1.1275932227237870 255 255 255
-0.1098520506018632 -0.3964713843738266 1.0024517852379633 255 255 255
0.0578888612097224 -0.1827463433551688 1.0298117945467737 255 255 255
0.1863288968282788 0.0844485573798224 1.0958411230657532 255 255 255
-0.0141658007494527 0.1370056112405642 1.1316893460082369 255 255 255
0.1201092166275615 0.2069764289203295 1.1069171265287707 255 255 255
-0.2778930100050441 -0.4082826156152171 1.0617852830903463 255 255 255
-0.2472836157262517 -0.4099067248259591 1.0652330699694996 255 255 255
-0.2348636349109161 -0.4085837349583219 1.0606916133340851 255 255 255
0.0460176528140046 -0.3816161683442827 0.9644883562334137 255 255 255
-0.2666059464358721 -0.3944636337051040 1.0742628580979154 255 255 255
-0.2407886360946918 -0.3921554594669541 1.0668771847156862 255 255 255
-0.1776752571567268 -0.1245183478605862 1.1336854677288208 255 255 255
0.1556867487123590 -0.0526921118186607 1.0201449237328299 255 255 255
0.2383133508654076 -0.0141271159246112 0.9979944657954747 255 255 255
0.1692458077954822 0.0274007021745847 1.0398068182128171 255 255 255
-0.2210081469639316 0.0187466219887290 1.1841455803320753 255 255 255
-0.1392641219755362 0.2223755636019122 1.2009802110271117 255 255 255
0.1561958012333768 0.3288694105738861 1.1167649507594035 255 255 255
0.1293666662371686 0.3470280084880102 1.1250964734315572 255 255 255
0.1699272183345477 0.4087582460369616 1.1428782608964019 255 255 255
-0.1285647687188254 -0.2737680875845073 1.0575924593174619 255 255 255
-0.0139974450604647 0.1644999631807824 1.1394102209812829 255 255 255
0.2183083767616432 0.4349058864445772 1.1079867556556526 255 255 255
-0.3142937708504796 -0.4619015250138911 1.1768915157226729 255 255 255
0.2607869990157141 -0.4033422822506658 0.9754166437707186 255 255 255
-0.1510267382377773 -0.3908824164024786 1.0280867022854172 255 255 255
-0.1354545091900734 -0.5302976648666191 1.6624168346859927 255 255 255
-0.1216304291205512 -0.4710010897150427 1.6575265726419990 255 255 255
-0.1604394061513119 -0.2602506693267079 1.0820592821710662 255 255 255
0.2345255866103368 -0.2103757615388486 0.9544541017308906 255 255 255
-0.2005350789374845 -0.2180948491992614 1.1090745910839814 255 255 255
-0.2331749245287806 -0.2740382434845799 1.4230846249625149 255 255 255
-0.1954419437082286 -0.1849424570639631 1.1135667888960548 255 255 255
-0.1290224470542114 -0.2490077362970795 1.7194180966208483 255 255 255
0.1375208595643613 -0.1019210078030439 1.0317039168583086 255 255 255
-0.1257094005120933 -0.1939356397194745 1.7163165336336874 255 255 255
-0.2292733491428152 -0.1759932565615646 1.4329261634033763 255 255 255
-0.2541555332599241 -0.1490326921922649 1.3660284758070480 255 255 255
-0.1341856148442631 -0.1755307230892673 1.6958114099569599 255 255 255
-0.2492244112962183 -0.1203237174259867 1.1637953946543504 255 255 255
0.2270571206947681 -0.0441674865190405 0.9920634050327823 255 255 255
-0.0237310048427566 -0.0815314367407126 1.0824303567641236 255 255 255
-0.2820420630986067 -0.1245837969704009 1.2989629307871764 255 255 255
-0.1737704870233987 -0.0884735797425775 1.5590982355738952 255 255 255
-0.1199025755393146 -0.0487798426206038 1.1379286877490253 255 255 255
-0.1202825270421872 -0.0971075426170481 1.7501887631837254 255 255 255
0.0063566728334479 -0.0160471400416768 1.0988851156049932 255 255 255
0.1455139090125995 0.0766169970600618 1.0824160165358694 255 255 255
-0.1296184502623383 0.0142019168940903 1.7786753746732344 255 255 255
-0.1871741651400036 0.0116425105639224 1.6054857978269546 255 255 255
-0.0748869324875958 0.0521370343938328 1.1454440639788359 255 255 255
-0.1144730639218476 0.0538474943321945 1.7642561001828820 255 255 255
-0.3207255068557959 0.0228607910869192 1.2322806486200690 255 255 255
-0.1067804881500667 0.0906835699528856 1.6838938594620805 255 255 255
-0.1232374097027380 0.0866243189397851 1.7956554859371594 255 255 255
0.2235193915837046 0.1756612080251228 1.0507597911738769 255 255 255
-0.1270393850426368 0.1232568333340098 1.8007407677396539 255 255 255
-0.1062830525742147 0.1177576407847631 1.1608058010410991 255 255 255
-0.3005732915225074 0.0859351726806246 1.2972626956629085 255 255 255
-0.2523981946698761 0.0981759181827795 1.2165335200275660 255 255 255
-0.1232781836593606 0.1717342588776007 1.8159025631328261 255 255 255
0.1376195000712315 0.2126542588529432 1.0962549633002361 255 255 255
-0.2711852761485423 0.1776821100597603 1.4053595381603898 255 255 255
-0.1267686274981159 0.2701806394556678 1.8388080048461743 255 255 255
-0.3117991236497497 0.1574630920191935 1.2857967042314669 255 255 255
-0.1247824046320556 0.2988770431395702 1.8529427508953882 255 255 255
-0.2275110475211086 0.2493362703594766 1.5504870777226714 255 255 255
-0.2148706251851706 0.2975691882874116 1.5921856266652625 255 255 255
-0.1479811954485690 0.3654716314724964 1.8291623991312242 255 255 255
-0.1091123174405251 0.2885681382615646 1.2029494296810430 255 255 255
-0.1317059633255369 0.5465933642858198 1.9163804681986161 255 255 255
0.1659364619604773 0.7640216718633326 1.2199434320534053 255 255 255
-0.2104251416758380 -0.4150967235102838 1.0501201589083653 255 255 255
-0.3262080331092303 -0.4233137527610051 1.1022102252695927 255 255 255
-0.2639087204651993 -0.3846258748891316 1.0382514332768586 255 255 255
-0.1372204205802774 -0.3846422797269216 1.0313903877578010 255 255 255
0.2112499484948742 -0.3578764953742828 0.9035024837065881 255 255 255
-0.3228338426329476 -0.3690135499683525 1.1331444242535114 255 255 255
-0.3209821867102960 -0.3534140298670634 1.1365659069536882 255 255 255
-0.1226475434604204 -0.5128234813980797 1.6582297193748872 255 255 255
-0.1160405753928604 -0.4690084707688153 1.6625129452454828 255 255 255
-0.1166600188373730 -0.4541034667543027 1.6733434689707192 255 255 255
-0.1585733668874867 -0.2604179945880772 1.0841103967618344 255 255 255
-0.1195371661485254 -0.2562567883331477 1.0802527855324886 255 255 255
-0.1897222739991715 -0.3188157868840412 1.5454128655059201 255 255 255
-0.2275870363542056 -0.2139557113472513 1.1374570875221912 255 255 255
0.0393181172098895 -0.1562329518892374 1.0449471190845729 255 255 255
-0.0273413635841382 -0.1565664613991805 1.0620462600969331 255 255 255
-0.0748525882043460 -0.1593832860884467 1.0788542728432571 255 255 255
-0.1231450243249288 -0.2312018654492987 1.7236627662861901 255 255 255
-0.0750704390348034 -0.0935911286524302 1.1108749934659485 255 255 255
-0.1974301939854879 -0.0597661821271336 1.1562410209414460 255 255 255
-0.2847145180103450 -0.0565288889135345 1.2811443990714988 255 255 255
0.2186711930169754 0.1227095657099189 1.0415791277971718 255 255 255
0.2226372869191637 0.1334254959111580 1.0451114997147581 255 255 255
-0.3239686526629264 0.0453164449677068 1.2388721327439101 255 255 255
0.0051559372578023 0.1212922650052994 1.1353612724361355 255 255 255
-0.1108797371001513 0.1264686038534137 1.1644661229458046 255 255 255
-0.1217413611254639 0.1726706517426999 1.8113125653214546 255 255 255
0.1127718698315050 0.2048923743294928 1.0999806965251704 255 255 255
-0.0777477819941232 0.1988073396881020 1.1757336762908537 255 255 255
-0.2246947345039505 0.2069791878411102 1.5239372221681080 255 255 255
-0.1540037380815669 0.2096802795455996 1.1985477222804590 255 255 255
-0.2804742968714535 0.1768548178452480 1.2433993248035655 255 255 255
-0.1557987946496997 0.2624062910797140 1.2129555714724969 255 255 255
-0.1938158835579218 0.3439711055251680 1.6720231580951950 255 255 255
0.2176679244133588 0.5496927323140994 1.1416882757913709 255 255 255
0.0891411976716920 0.5903242139276794 1.1925389442996752 255 255 255
-0.2811357535580719 0.4832188304327367 1.3165244394815758 255 255 255
-0.2359369482957341 0.6378870190665182 1.6332793780521619 255 255 255
-0.1661240808674833 0.5585410865713989 1.2685583561941343 255 255 255
0.1621927205865079 0.7096369718906486 1.2192495905916534 255 255 255
0.1724280881619045 0.7305910220118239 1.2139904019330423 255 255 255
0.0333220427725586 -0.3892989863947147 0.9657639721730215 255 255 255
-0.1591268327667859 -0.3834699326837110 1.0124376205796937 255 255 255
-0.3230742405331730 -0.3691685793777855 1.1331436936530068 255 255 255
-0.1171445191635021 -0.4552760873654672 1.6673947730147549 255 255 255
-0.1989339154338650 -0.3745098039877586 1.4629681515366961 255 255 255
-0.1014567918393858 -0.4268461754566166 1.6879708451453936 255 255 255
0.0891712353846241 -0.2454675944396294 0.9952359591966982 255 255 255
-0.1248696652300678 -0.3651826364049616 1.6930433960746023 255 255 255
-0.1190042014414354 -0.2480844102906546 1.6744549324656472 255 255 255
-0.1543649630711137 -0.1149340107163672 1.1151862323259856 255 255 255
-0.1269493832754431 -0.1302276318632120 1.7440912705109684 255 255 255
-0.1675432753174189 -0.1120212877968253 1.5743521768016500 255 255 255
-0.1234027811050185 -0.0219141830672738 1.7664315827368471 255 255 255
-0.1289748842889455 0.1308569790835898 1.8104001580710438 255 255 255
-0.1255890156446089 0.2492158086584451 1.8340296719279880 255 255 255
0.1824852696936976 0.3615719869069988 1.1142768191163364 255 255 255
-0.1490998203786766 0.3730760240644670 1.8262430850124627 255 255 255
-0.3265034946976419 -0.4375504904616485 1.0961814881457188 255 255 255
-0.3358043562284085 -0.4319617154385094 1.1060835831879992 255 255 255
-0.3278000587811152 -0.4116616907776631 1.1063461989249448 255 255 255
0.2465540280837755 -0.3813855596652625 0.9661176884669864 255 255 255
-0.1190252187810259 -0.5084574270781808 1.6292335456947811 255 255 255
-0.0763379091044136 -0.2943758624968069 1.0611861927709221 255 255 255
0.0149037986327833 -0.2496852306902815 1.0262959612593896 255 255 255
0.0487037742072154 -0.2482076647483913 1.0236054887287764 255 255 255
-0.0695519205820467 -0.2338757725007343 1.0810148988826889 255 255 255
-0.2453524120923922 -0.2788832430462792 1.3138113901663202 255 255 255
-0.2272834987427714 -0.2142641947208864 1.1370901034400243 255 255 255
-0.1121091510940566 -0.2571678258071495 1.7091775089634638 255 255 255
-0.1959470169749897 -0.1388643256085473 1.1388276442784973 255 255 255
-0.1364403847184938 -0.1891080599252695 1.7147462303458809 255 255 255
-0.1263999054124838 -0.1296466028039786 1.7460107106894798 255 255 255
-0.1247189384312861 -0.1096103913132103 1.7388530421008426 255 255 255
0.0121270660170327 -0.0341160913240738 1.0769888461261270 255 255 255
-0.1665446066734368 -0.0978449536599704 1.6144645604206609 255 255 255
0.2103826269873608 0.0101417978335450 1.0107919944977759 255 255 255
0.0130057666358043 0.0275083465924576 1.0943275273962239 255 255 255
-0.1134305507210973 0.0129132986647609 1.1368134760810538 255 255 255
-0.3200151892441907 -0.0164320616986433 1.2080232794429322 255 255 255
-0.1053322360191284 0.0286444614345442 1.7782382542435364 255 255 255
-0.0755468838283768 0.1230684241931379 1.1568817245688745 255 255 255
0.1863803793092322 0.2136129149746122 1.0726004012654673 255 255 255
0.1383812516671306 0.2273960975672846 1.0962730638835012 255 255 255
-0.1670997755603041 0.1682518595046610 1.1969456274268795 255 255 255
-0.0770606678826198 0.1994755445111789 1.1771408737163824 255 255 255
-0.2474448651120476 0.1824306392969337 1.2367039364993850 255 255 255
0.2152553973624176 0.3004616036804776 1.0792409449946558 255 255 255
-0.1180033380569512 0.2891912866888617 1.8469505825897272 255 255 255
-0.1145519294485853 0.3938517340827064 1.8555870255283908 255 255 255
-0.2221790894461506 0.3317600172406916 1.5811172813848628 255 255 255
-0.1738898852201882 0.4106075221104761 1.7284375476504170 255 255 255
0.0057880791989273 0.4611158700728977 1.1960594018539936 255 255 255
0.0176621633578691 0.4814170704996350 1.2009365372589702 255 255 255
0.2257929628694253 0.6851691392027357 1.1894613375657865 255 255 255
0.2180810659109298 0.7663023310096087 1.2140642600676781 255 255 255
-0.2063224442936917 -0.2854276835264544 1.0996754268682309 255 255 255
0.1837397564696657 -0.2019125012371714 0.9767537072447375 255 255 255
-0.1926516235193709 -0.1955062392276590 1.1067530933404228 255 255 255
0.1812407895860684 -0.0529459482272631 1.0192069648363624 255 255 255
0.1545921652974398 -0.0351428260858789 1.0266022697197372 255 255 255
-0.2732668091410169 -0.0225884999870947 1.1886612469373787 255 255 255
0.1395805185408605 0.1765409576285712 1.1099570586419816 255 255 255
-0.2025701476833781 0.1093012645298632 1.2002529622264859 255 255 255
-0.2180126686855797 0.1713801540064699 1.2205277057885811 255 255 255
-0.1118130757747409 0.4127111101393943 1.8888150332844589 255 255 255
-0.1398995491158095 0.4155128901782188 1.8281745900051534 255 255 255
0.0837466359422467 0.3870687165421592 1.1567337588853068 255 255 255
0.0012894572191451 0.4086696180403950 1.1888975336765202 255 255 255
0.0574105009467711 0.4583524476392786 1.1841786668143177 255 255 255
-0.0668640932655075 0.4351462563194420 1.2240421070364025 255 255 255
-0.1345590983476415 0.4657880131185346 1.2553052212144014 255 255 255
-0.2762914813780526 0.5239085266054282 1.3196710350392280 255 255 255
-0.3416651833622133 -0.4435864401645873 1.1067369595748922 255 255 255
-0.3367529612055759 -0.4302712307594505 1.1073336876710256 255 255 255
-0.2331772605157312 -0.2751334283004292 1.1173883602787207 255 255 255
0.1437628314569697 -0.1470354328223663 1.0076385329077038 255 255 255
0.0393224085628798 -0.0850244048087879 1.0621222260073306 255 255 255
0.1445364703970453 -0.0228082092235734 1.0328117794310157 255 255 255
0.1206208207463426 0.0003282686562449 1.0537539877228195 255 255 255
-0.0095290260724585 0.1166576163049586 1.1291868540762184 255 255 255
-0.2816723473667206 -0.4081633584788662 1.0633944344135431 255 255 255
-0.1063605149120062 -0.3951381858762512 1.0162031819781583 255 255 255
0.2069983157749924 -0.2675297787391537 0.9514024387868991 255 255 255
-0.2025667845548647 -0.2885625305470012 1.1079471033393684 255 255 255
-0.1122367240614874 0.0735424808684328 1.7837812976839142 255 255 255
0.2159593117836911 0.4153901627935692 1.1149024541991730 255 255 255
0.0689567416280106 0.3823557910028779 1.1617997269344933 255 255 255
-0.1848589026156233 0.4322570942266850 1.8213387668283332 255 255 255
0.2135212208294863 0.5790527563288315 1.1454323323910800 255 255 255
0.1691034135014773 -0.2494416483551715 0.9780472055913934 255 255 255
-0.1435139484995283 0.2254553441957192 1.2007430707451903 255 255 255
0.2186343087365827 0.5002413958497645 1.1023061881216938 255 255 255
0.2140514617767164 0.4450223344686133 1.1072043784108283 255 255 255
0.2187766044756164 0.2578909154815889 1.0755262546724360 255 255 255
-0.2522985736799246 -0.4241536442448779 1.0639962830388665 255 255 255
-0.3300345019139002 -0.4351474125086515 1.1352341946488198 255 255 255
0.1553693548986494 -0.3878175388820360 0.9494085982372482 255 255 255
-0.1326542474168697 -0.3774695122462450 1.0172594373301305 255 255 255
0.1871519349068009 -0.3690085291829162 0.9411454188773067 255 255 255
-0.3224756468791659 -0.3791262496433012 1.1289219837268578 255 255 255
-0.1248703368801563 -0.5224506269109888 1.6590101603030551 255 255 255
-0.3096958471389790 -0.3257580243187412 1.1720819166504555 255 255 255
-0.2680064906015787 -0.3540725414839603 1.2870318007518051 255 255 255
-0.1206513342347089 -0.4362669513600220 1.6643321308286967 255 255 255
-0.1475077335958366 -0.4090885525937922 1.5949393899597810 255 255 255
-0.2320071800667480 -0.3058245645784562 1.4036129791236509 255 255 255
-0.2795661608140243 -0.2663833343572115 1.2736683594409293 255 255 255
-0.1285180133380859 -0.2662866986978731 1.6799296756940247 255 255 255
-0.3072033370074045 -0.1888204110307690 1.2141916016590244 255 255 255
-0.1197807472723724 -0.2503184285212829 1.7138040848250755 255 255 255
-0.2631801492420323 -0.2018357239081010 1.3252265110328949 255 255 255
-0.3238095480429877 -0.1798286269534062 1.1757790572487465 255 255 255
-0.1205515094054768 -0.2184140873031811 1.7218341351865867 255 255 255
-0.2039718429087474 -0.1698619719525842 1.5104606750195959 255 255 255
-0.2113465629623033 -0.1635188984877550 1.4673879876259233 255 255 255
-0.2480850423282632 -0.1492721609807945 1.3693087800187449 255 255 255
-0.2419790780115392 -0.1575118537666916 1.4087755513748910 255 255 255
0.2269976913984106 -0.0354785081798697 0.9950162283175040 255 255 255
-0.1296884796316089 -0.1611405517890016 1.7083543341199974 255 255 255
-0.3001790625967491 -0.1228256514922436 1.2514546138898002 255 255 255
-0.2454706845563663 -0.1268522179823417 1.3962368364948290 255 255 255
-0.2017070887254846 -0.1265783614949909 1.5116802997910810 255 255 255
-0.2616071004229492 -0.1139199204510840 1.3515091952052449 255 255 255
-0.2299657521486722 -0.1081516870587313 1.4541949549324187 255 255 255
-0.0718637539951175 -0.0473323001889572 1.1109722446935208 255 255 255
-0.2722897400462716 -0.1002167860413310 1.3283904178548933 255 255 255
-0.2917131410648253 -0.0895388835147326 1.2782830345678278 255 255 255
-0.2307870180802354 -0.0952640359063306 1.4408842215335156 255 255 255
-0.1316240928523644 -0.0875074465070300 1.7241682969743910 255 255 255
-0.1602268209608955 -0.0534700269675710 1.6495332215023053 255 255 255
-0.1291270929477797 -0.0269448190963937 1.7520906569571464 255 255 255
0.2218210558295516 0.0876650792848845 1.0323898263205198 255 255 255
0.2257250010005323 0.0954065674615093 1.0310514752388675 255 255 255
-0.1597591647478716 -0.0047861243320675 1.6654650120393093 255 255 255
-0.1325317965295660 -0.0045737145225795 1.7560397835092836 255 255 255
-0.2639232047216598 0.0015621902847976 1.3769425035331782 255 255 255
-0.1890935860252654 0.0459023954849549 1.5926628179598197 255 255 255
-0.2093747345863974 0.0519847273730552 1.5415552870696327 255 255 255
-0.3180977241653649 0.0215531104086164 1.2355850278834946 255 255 255
-0.1314510603996126 0.0581951361766357 1.7588681848300514 255 255 255
-0.1888477574971574 0.0756350017051908 1.5927026180390058 255 255 255
-0.2767141255454328 0.0572288064228513 1.3518220999222130 255 255 255
-0.1810175825887086 0.0882420696050303 1.6390706670436828 255 255 255
-0.1980441668413704 0.0846137462302377 1.5741491254769642 255 255 255
-0.2948546143161312 0.0839448750594051 1.3209370825772333 255 255 255
-0.3221727692377012 0.0711640018288024 1.2448428864934478 255 255 255
-0.1304018210637068 0.1518087510762955 1.8149061991903164 255 255 255
-0.1367502320610257 0.1820971928683637 1.7853652445050230 255 255 255
-0.1845938727582723 0.1709000915715730 1.6396893721371857 255 255 255
-0.2056675673276587 0.1772510883163072 1.5852202440672301 255 255 255
-0.1894644195688713 0.1972378908591281 1.6403846551999095 255 255 255
-0.2680433103273181 0.1690775237120858 1.4184549772753314 255 255 255
-0.1316005644830902 0.2365907227333057 1.8070304875596968 255 255 255
-0.2074308803254610 0.2029862460052172 1.5855798489048709 255 255 255
-0.2491200707770180 0.2124396873543348 1.4796642993794449 255 255 255
-0.3226383881798371 0.1783440081566843 1.2705690129286769 255 255 255
-0.2582416237154401 0.2366379521147604 1.4628054411856830 255 255 255
-0.1863820846280220 0.3089568157851588 1.6757962511406674 255 255 255
-0.1645370016386565 0.3502327625925936 1.7754604636978470 255 255 255
-0.2792747178300150 0.2852780231657768 1.4088376261544013 255 255 255
-0.2981201432892746 0.2799451451208572 1.3673181199586351 255 255 255
0.2179374318002449 0.4843498310204022 1.1271494870727943 255 255 255
-0.2459336653005053 0.3710681437828942 1.5562682410059141 255 255 255
-0.2477085477624428 0.3713729212581782 1.5159169430888753 255 255 255
-0.2964594443683293 0.3406192388175346 1.3855145951226229 255 255 255
-0.1333049561751301 0.5125367616969196 1.8960492715499448 255 255 255
-0.2782225649187247 0.3616252122824495 1.4294565574031033 255 255 255
0.2279337350414892 0.5759161157357848 1.1435482057574777 255 255 255
-0.1569743111639177 0.5575445379971899 1.8470934752182551 255 255 255
-0.1845906764632907 0.5324315526589967 1.7564003527801439 255 255 255
-0.2703942145901941 0.4631910771673073 1.5488688636909203 255 255 255
-0.2212509957972060 0.5360088639860408 1.6579577880370522 255 255 255
-0.1710451242919637 0.6205730268661318 1.8037550597173180 255 255 255
-0.3079582559486109 0.4970722533104777 1.4253492156960803 255 255 255
-0.2341686471089730 0.6066091042176254 1.6410816906047216 255 255 255
-0.1704670509351587 0.5460470868771274 1.2685276316762959 255 255 255
0.0263500297139529 0.7419525123989670 1.2525459591928896 255 255 255
-0.3261186553220283 -0.4106071849757532 1.1072589786156044 255 255 255
-0.2152033525092172 -0.3944657305020316 1.0590542830617222 255 255 255
0.0257534394121173 -0.3806693153068785 0.9608444196071808 255 255 255
-0.2937650785897288 -0.4500730782009533 1.2426967453084399 255 255 255
-0.2814361137076355 -0.3651938534863339 1.2214372282777983 255 255 255
-0.0001742402758609 -0.2856224278445296 1.0284358867904606 255 255 255
-0.2232142392529290 -0.2563779656101814 1.4332224891784833 255 255 255
-0.1258721434633134 -0.2765502008813758 1.6882450085136345 255 255 255
-0.1808384078287597 -0.1731386034714295 1.1092868309679362 255 255 255
-0.2109361009613409 -0.2195006355602565 1.4698003958536319 255 255 255
0.0581396781833448 -0.1067300626011922 1.0424486385565359 255 255 255
0.0470352392310602 -0.0832609327343819 1.0635423531801715 255 255 255
0.2234203882272823 -0.0007104903736532 1.0107680435448398 255 255 255
-0.3174811628452900 -0.0901886549267399 1.1943766924975971 255 255 255
-0.1727444752515908 -0.0966633041709262 1.6010980888996826 255 255 255
-0.3148166511127011 -0.0728969746439021 1.2182974377429758 255 255 255
-0.2478512164809636 -0.0409546583651816 1.1866990549898233 255 255 255
-0.2236364755004026 -0.0222893264234660 1.4854552471416422 255 255 255
0.0451844989693271 0.0466564997351533 1.0937877010585595 255 255 255
-0.2997403086025052 0.0256045837277004 1.3085211035104152 255 255 255
-0.3131801907142187 0.0481078293620496 1.2551625374375366 255 255 255
-0.0792384315960550 0.1122369312739071 1.1592625463909467 255 255 255
-0.3159381693302077 0.0706898189573801 1.2552084697091790 255 255 255
-0.2995989762771494 0.0853758918676935 1.2998893668483902 255 255 255
-0.2340628385259578 0.1325503473088645 1.4961666258896074 255 255 255
-0.1568647862067419 0.1474541395997239 1.1885913737993179 255 255 255
-0.3047929470604949 0.1131404993535163 1.3004645377569626 255 255 255
-0.2945404531044442 0.1217574028218573 1.3297271939492266 255 255 255
0.2173694199224920 0.3124096752603513 1.0903397039911411 255 255 255
-0.2401546542134891 0.3619246183160767 1.5652169154983104 255 255 255
-0.3285812741288345 0.3739963480240185 1.3196585285070408 255 255 255
-0.3143192714916196 0.5020079371346959 1.3717145924985843 255 255 255
0.0394734243805059 0.7421291232428500 1.2544828169555502 255 255 255
-0.1192213671833375 -0.3834271176067716 1.6837506160748763 255 255 255
-0.2098792950481183 -0.1530899476988413 1.5557138285104379 255 255 255
-0.0939863813225070 -0.0467290305051602 1.7633844177819222 255 255 255
-0.3192562848495299 -0.0358282498032161 1.2227108582686834 255 255 255
-0.1367377701983941 0.0270829683121541 1.7410758572918184 255 255 255
-0.2455212531942941 0.0794161287158071 1.4508287255385497 255 255 255
-0.2471312223696387 0.1296025615356040 1.4618489729083446 255 255 255
-0.3234851103075069 0.1784946069811362 1.2713178206296494 255 255 255
-0.1336406899707780 0.3830173285066585 1.8634603103365182 255 255 255
0.1356941395254623 -0.3956101971240500 0.9183452788572044 255 255 255
0.2125854898523665 -0.3722300291718734 0.8989472664934184 255 255 255
1.2422104448663909 -0.7521194757106513 1.8323625470199012 255 255 255
-0.2922701328485520 -0.4504000048198229 1.2434541065221483 255 255 255
0.2229494098306266 -0.3633732319915173 0.8999257901626188 255 255 255
-0.1140649431384126 -0.5789606460216905 1.6524880635758725 255 255 255
0.0148702269823282 -0.2812326037304258 1.0178579086097521 255 255 255
-0.2528877067783624 -0.2505293221055646 1.1350792669627925 255 255 255
-0.2446088522415693 -0.2651717044504365 1.3365369406045700 255 255 255
-0.2197823959713681 -0.2055635253236243 1.1319084709417524 255 255 255
-0.3183732489556590 -0.2102042899390233 1.1870455788117003 255 255 255
-0.2498856156189140 -0.2183662637427536 1.3527503717247082 255 255 255
-0.1173080546251892 -0.2660735851133473 1.6911494557670803 255 255 255
-0.1217051103828108 -0.2631900246680828 1.7198249139767321 255 255 255
0.1315320908647939 -0.0978359452262431 1.0338256477557290 255 255 255
-0.1294148565710600 -0.1406545222237354 1.7120161030722159 255 255 255
-0.3050049553891903 -0.1146841848225983 1.2435948663626313 255 255 255
0.1841641445254469 -0.0159436121544689 1.0396086172260028 255 255 255
-0.1985327526218761 -0.1128652970877068 1.5291870147208435 255 255 255
-0.2814051973250957 -0.0486819315594305 1.3089887368582453 255 255 255
0.0563214264519445 0.0498692241621501 1.1040451342841795 255 255 255
0.0568308654673668 0.0620761139933412 1.0985537529908767 255 255 255
0.2236983104942567 0.1276356102046285 1.0375763700720095 255 255 255
-0.2957282337391511 0.0304894961398743 1.3538696888601436 255 255 255
-0.3175788688903052 0.0665780568520178 1.2328844228255733 255 255 255
-0.3151785127117801 0.0690085967302954 1.2584112817240380 255 255 255
-0.1441942409955885 0.1148461050498373 1.1807314243463729 255 255 255
-0.3361335789508439 0.0941850233122241 1.2315459423700874 255 255 255
-0.1318324610730102 0.1839414766553036 1.8234620717423260 255 255 255
-0.1788259858693295 0.1950951418006379 1.6350147683192020 255 255 255
-0.0917678290591109 0.2590430493191683 1.1917197820060523 255 255 255
-0.1766380544131056 0.3069754393499400 1.7010448474229536 255 255 255
0.1370053518878436 0.3739536759857538 1.1342668127729514 255 255 255
-0.2296404006198145 0.3231938687841591 1.5686647686615203 255 255 255
-0.1394901364005019 0.5255103960275704 1.9068225877177394 255 255 255
-0.1320154494129389 0.5415277148312851 1.9048139893384688 255 255 255
0.0080984660268122 0.4618225436939749 1.1982867240961834 255 255 255
-0.0262670087480146 0.4781003950318770 1.2154651962601761 255 255 255
-0.1417080713374439 0.5732062909886171 1.8867584673230517 255 255 255
-0.3370391977660478 0.3965686072647769 1.3396252133347002 255 255 255
-0.3235933528410144 -0.4404580972148321 1.0855308860054520 255 255 255
-0.1277972689194788 -0.5722113243435888 1.6324359689687147 255 255 255
-0.3178914227257579 -0.2906319646606972 1.1631204873584586 255 255 255
-0.1271528302056266 -0.3758682148369027 1.6903257788826394 255 255 255
-0.3213618980345370 -0.2355784109152821 1.1544106420825329 255 255 255
-0.0610375480063610 -0.1404387806639829 1.0763219813910032 255 255 255
-0.0256934540662188 -0.1017149837918678 1.0726772773040243 255 255 255
-0.1500103661241630 0.2332686283826002 1.2009686422737640 255 255 255
0.1275046831166875 -0.3937329540742536 0.9155071233268642 255 255 255
0.0739628867695679 -0.3942030087753370 0.9414695234661790 255 255 255
-0.2808747219837358 -0.3019881789528196 1.2967812532940086 255 255 255
-0.2240547297825231 0.3987906990556276 1.2716588474485420 255 255 255
-0.2589321160888716 0.4042026474700151 1.3025665958475230 255 255 255
-0.2845705396022380 -0.4695639517035330 1.2300911896953490 255 255 255
-0.1160263518696381 -0.5371036860316085 1.6591453176178570 255 255 255
-0.3179282022730345 -0.3063664020765624 1.1376437699268747 255 255 255
-0.1192036694207488 -0.3955350217616962 1.7119388416649919 255 255 255
0.2374208086498401 -0.1729039192542942 0.9480539549952410 255 255 255
-0.1157748032914672 -0.2665945852420493 1.7107728818605601 255 255 255
-0.1179677570501667 -0.1690953020043162 1.7300754754400032 255 255 255
-0.1088867666215014 -0.1428696261575553 1.7386330022912917 255 255 255
-0.2274516679116942 -0.0860951531101453 1.4649557138904825 255 255 255
-0.1307506763667305 -0.0477760800038043 1.7643168455868388 255 255 255
-0.1347006091726435 0.2719593962402596 1.8434084157692463 255 255 255
-0.1062635440321031 0.3451783298754485 1.8580620114906381 255 255 255
-0.1422841830701671 0.3604855297328804 1.8670895573988986 255 255 255
0.1921279916092677 0.6175611019756249 1.1440504033006547 255 255 255
-0.2696818696416443 0.4538285822002912 1.3027191347366767 255 255 255
-0.1706134022263956 -0.0385968057792914 1.1560799859334079 255 255 255
-0.1606491390302054 0.3303596967970996 1.2514445113130890 255 255 255
-0.1852718640168920 0.4229256933593373 1.2692155252147286 255 255 255
-0.1272186513004891 -0.5047647137612385 1.6695456283135193 255 255 255
-0.1381634661795559 0.5644020670316721 1.8775759881209950 255 255 255
-0.3308411072293806 -0.4442483451243998 1.1301436837289141 255 255 255
-0.2866704517819230 -0.4870202486546216 1.2652314657790207 255 255 255
-0.1054434931314034 -0.4047613671972465 1.0149032247338567 255 255 255
-0.2410743119269725 -0.4980723795201865 1.3747296386431884 255 255 255
-0.1283930738409271 -0.5822956587634525 1.6367533846387525 255 255 255
-0.2468994977586014 -0.4796105792478748 1.3635450092252146 255 255 255
-0.1995404065781896 -0.5129187135867028 1.4857348087431337 255 255 255
-0.1360281298274870 -0.4798836295934024 1.6169593634522172 255 255 255
-0.1682898321031132 -0.4567813578161424 1.5272252685461574 255 255 255
-0.1710661451585054 -0.3930441699111933 1.5361494269549052 255 255 255
-0.1722206762628566 -0.3825699279608958 1.5504143032284743 255 255 255
-0.2757252813113169 -0.3085274408072642 1.2735182943657932 255 255 255
-0.2683970500267643 -0.3062877747277148 1.2864973783801370 255 255 255
-0.1738553474950510 -0.3647324842942630 1.5526964901373539 255 255 255
-0.2654780473124276 -0.3024482879028075 1.2965537813620989 255 255 255
-0.1752949421120107 -0.3495354266784196 1.5386647709928969 255 255 255
-0.2168038145465552 -0.3088712519713539 1.4235054295090102 255 255 255
-0.1680346273706128 -0.3262157436054604 1.5737418501576137 255 255 255
-0.1252279303669024 -0.3328710281357192 1.6744780261186447 255 255 255
-0.2343701959979079 -0.2766454789706295 1.3692368710652252 255 255 255
-0.1752732230852416 -0.3002507216504560 1.5482689154760578 255 255 255
-0.2235241524747451 -0.2563273634143353 1.4372229268916961 255 255 255
-0.1207980825650967 -0.2884567918538889 1.7048783702171475 255 255 255
-0.1286033133310873 -0.2662475887475277 1.6799031883975140 255 255 255
-0.2768217365392260 -0.2062037213134218 1.2917832619510428 255 255 255
-0.2606202607502635 -0.2076508730372937 1.3303038352775487 255 255 255
-0.2118718640963886 -0.2079130500457689 1.4526814137998285 255 255 255
-0.3186633800593341 -0.1737605158456159 1.1811378438652280 255 255 255
-0.1214620495071870 -0.2350770921695642 1.7166087600139566 255 255 255
-0.2879795054707586 -0.1585174554458204 1.2400624667178199 255 255 255
0.2149126594505972 -0.0464141532989988 1.0021673291192750 255 255 255
-0.2417927711393837 -0.1637422338558343 1.3970726086782506 255 255 255
-0.1311171912633426 -0.1809650609993119 1.6871077052509698 255 255 255
-0.2180166412237767 -0.1603464556917785 1.4660802005046198 255 255 255
-0.2748756164631811 -0.1420015494871587 1.3083172795307521 255 255 255
-0.1817063441081785 -0.1477798745992256 1.5472975583377746 255 255 255
-0.1233599509984646 -0.1578116611097334 1.7330712480611830 255 255 255
-0.2707961751668133 -0.1217827073173998 1.3221583816524909 255 255 255
-0.3152636844894507 -0.1124069229370176 1.2086215817540280 255 255 255
-0.2426925539689790 -0.1240069534905581 1.3997862129531953 255 255 255
-0.2775709629060445 -0.1142909780613591 1.3090556761708845 255 255 255
-0.2435775054382106 -0.1183121867442471 1.3917255300819988 255 255 255
-0.1846496300295035 -0.1220453158690116 1.5650795960510937 255 255 255
-0.2753187317007715 -0.0991410521365443 1.3121228390156432 255 255 255
0.0189648210239994 -0.0215914379595636 1.0776049147619897 255 255 255
-0.1480300196098412 -0.0991073656769004 1.6585704884054593 255 255 255
-0.2908142037505357 -0.0817876057277314 1.2602990216881071 255 255 255
-0.2189288458360465 -0.0959749606198306 1.4822577740737772 255 255 255
-0.2748648370036575 -0.0857223049600916 1.3296149630110947 255 255 255
-0.2451474084183207 -0.0764212496623307 1.4087389937832189 255 255 255
-0.3043314923603249 -0.0686900675501760 1.2462710677349276 255 255 255
-0.1280717978700956 -0.0778986097161836 1.7424936291259776 255 255 255
-0.2470056941215759 -0.0546503651674466 1.4118821425467116 255 255 255
-0.2443988748428456 -0.0405058065609996 1.4218648427833611 255 255 255
-0.2147124859472243 -0.0297708114550064 1.5130514357861458 255 255 255
-0.1511746944729140 -0.0237858051718360 1.6752437202904495 255 255 255
-0.3215324661099355 -0.0294477715780807 1.2097497981890022 255 255 255
-0.2920121175771166 -0.0267786533282992 1.2929839039025843 255 255 255
-0.1326392093520710 -0.0136242703493235 1.7408249389792925 255 255 255
-0.3214157957471144 -0.0172345387871893 1.2132623849094042 255 255 255
-0.3194778431111462 -0.0079298886229497 1.2179092187294631 255 255 255
-0.1275566593076825 0.0122914309212301 1.7809930472196589 255 255 255
-0.3045984096403851 0.0080784772807994 1.2656301520879216 255 255 255
-0.1884602735856475 0.0240173657525915 1.6082537811726638 255 255 255
-0.3132986381537695 0.0058961661928925 1.2399316210391076 255 255 255
-0.3175218226313330 0.0207029910545693 1.2250044917102731 255 255 255
-0.1460576937160738 0.0490570998268227 1.7118486113689126 255 255 255
-0.2300555599122083 0.0585894605834349 1.4830146016077554 255 255 255
-0.1291855956296359 0.0806652541815005 1.7971432169451020 255 255 255
-0.2795902378871489 0.0530627539022959 1.3502838787706750 255 255 255
-0.1316984615391981 0.0971372756293514 1.7877520213961233 255 255 255
-0.1206518233831595 0.2238224065951520 1.8312464007163030 255 255 255
-0.1979665070888323 0.2172870294705689 1.6202306292547561 255 255 255
-0.1725227222554793 0.2319274602024439 1.6846023097224077 255 255 255
-0.1577245128518072 0.2720967351472616 1.7534661154182523 255 255 255
-0.2689475570928503 0.2321730773116790 1.4335060615782313 255 255 255
-0.3104972238136767 0.2096427467081980 1.3032294847428432 255 255 255
-0.2588376601047280 0.2576616921740991 1.4473645564013200 255 255 255
-0.1247822848217304 0.3540034926660498 1.8608941393418030 255 255 255
-0.1276666785100353 0.3721148020993188 1.8470504242986756 255 255 255
-0.2286270581856265 0.3015245954371597 1.5629717729075168 255 255 255
-0.1915617282926334 0.3298930347309366 1.7045073129631731 255 255 255
-0.1429139365992143 0.3775164490691214 1.8341662958689131 255 255 255
-0.1552826568134549 0.3690132442269700 1.7757726576342918 255 255 255
-0.2506832643544818 0.3071150389416002 1.5037951605277122 255 255 255
-0.1278712402307178 0.4292227303967024 1.8811755093087754 255 255 255
-0.2509678376049944 0.3438941864236833 1.5142906151609825 255 255 255
-0.3145312705044176 0.3018776872447252 1.3239695643930205 255 255 255
-0.2499575543207424 0.3696034961869143 1.5312748681974275 255 255 255
-0.1310001440150828 0.5120337853387866 1.8991945268647648 255 255 255
0.2117991336783689 0.5755496486099645 1.1391191682638535 255 255 255
-0.2718377090067392 0.4755359461804805 1.4919779876031818 255 255 255
-0.3014980004250702 0.4695741155504365 1.4150961809519700 255 255 255
-0.1249460014033374 0.5510010165893178 1.2531906519275786 255 255 255
-0.2746164796148367 0.5658964016762091 1.5138876765874585 255 255 255
-0.3244210846167856 0.5075720155114940 1.3555412159841858 255 255 255
-0.3367903672386349 -0.4525937140786394 1.1207753162230500 255 255 255
-0.1286119053341164 -0.5747345185745135 1.6383031180978920 255 255 255
