ply
format ascii 1.0
element vertex 675
property double x
property double y
property double z
property uchar red
property uchar green
property uchar blue
end_header
-0.1393441431350433 -0.2656210733080153 1.9187093612965693 255 255 255
-0.3624304663403062 -0.1231848895738071 1.8734749579158665 255 255 255
-0.8542221310820096 -0.2764247242325407 1.7671587045743196 255 255 255
-1.4182097817365911 -0.4554994629015092 1.6642962754518740 255 255 255
0.0387890457792461 0.2582322889656729 2.0079664686364049 255 255 255
-0.0976805025556673 -0.4962753822490715 1.8298200987362752 255 255 255
-0.7038456110893367 -0.5790767240754668 1.7438015269243081 255 255 255
-0.7392217540028705 -0.5473287007570455 1.6042870563029101 255 255 255
-0.7910010477165422 -0.5066817301824811 1.4703789461476475 255 255 255
-0.6350560709063806 -0.3789792240691569 1.7859410022792552 255 255 255
-0.3265025919212539 -0.2091309646839230 1.8687056320877096 255 255 255
-0.8478242737611335 -0.4604118422982197 1.4765296526277440 255 255 255
-0.8093556954188044 -0.3876977137350903 1.7460680923851672 255 255 255
-0.9555785623631482 -0.4468339642077820 1.6263779118710904 255 255 255
-0.9663173943207231 -0.4033394133248724 1.6700320821855299 255 255 255
-1.1572078740058784 -0.4493450167540027 1.6206893514937013 255 255 255
0.6190318755415736 -0.0530027046689397 2.0868000951273036 255 255 255
-0.4568328004107287 -0.5579027091171991 1.8115313159963753 255 255 255
-0.2913897998944032 -0.4733772038795890 1.8321989307301152 255 255 255
-0.3396167596694846 -0.4972836244849677 1.8132405601786308 255 255 255
-0.1295773034584595 -0.3633261553724720 1.8050984237717627 255 255 255
-0.2824343056197032 -0.4580254632924787 1.8202487420861577 255 255 255
-0.1968525810932027 -0.4152026383943221 1.9041697667332684 255 255 255
0.3562001049033507 -0.1336296261718753 1.9830462934693192 255 255 255
-0.4823571010223883 -0.4558414096252149 1.8257972562288995 255 255 255
-0.4227313273132408 -0.4188875529318325 1.8474814870922622 255 255 255
-0.0107299346336812 -0.1634616664853324 1.9567986762238672 255 255 255
-0.2842849022824204 -0.2083717509986293 1.8766439202944389 255 255 255
-1.0628711591818436 -0.5826174833352753 1.8548370623575301 255 255 255
-0.9368205460980068 -0.4878515599567348 1.7237219018101664 255 255 255
-0.0793326972440668 -0.0590010091519033 1.9481030079917314 255 255 255
-0.6295631909599675 -0.2524456281238623 1.8276019513719366 255 255 255
-1.4010442546332122 -0.6081572655972628 1.6260588172433659 255 255 255
-0.0568128140907295 0.0609887258416267 1.9902319265575490 255 255 255
-1.1417282496798131 -0.4261406826039527 1.7104092342412864 255 255 255
0.1085266834579333 0.1775667556797713 2.0162260003138717 255 255 255
-1.3855221316247333 -0.5458156118151968 1.6441050629369967 255 255 255
-1.1624512256992015 -0.4290539303906037 1.6975589083716338 255 255 255
-1.0584741008427363 -0.3790375348323282 1.7231884800789976 255 255 255
-1.4704760286426248 -0.5750188573914125 1.6257809522281628 255 255 255
-1.1741978256535994 -0.4210981700514341 1.7006031966299044 255 255 255
-1.6199890877384457 -0.6323019720388859 1.5920331279029831 255 255 255
-1.7032436708207850 -0.6503517951824498 1.5757461028966238 255 255 255
-1.5280052011427421 -0.5584516000060094 1.6362910302388942 255 255 255
-1.4035912373521766 -0.5059406043140769 1.6465933141215476 255 255 255
-1.4147167519128339 -0.5018454368311649 1.6486362205989924 255 255 255
-1.6308837727461025 -0.5634736939380771 1.6054559736690417 255 255 255
-1.5286536217180131 -0.5129381076631114 1.6285362679640663 255 255 255
-1.5294664326329830 -0.5005331144102151 1.6343820754440075 255 255 255
-0.2340685712272901 0.1585671850551300 2.3771364087037981 255 255 255
0.0832968134231900 0.3112617010421976 2.0201584035694999 255 255 255
-0.0323917047702061 0.3861615662212988 2.0067530330309702 255 255 255
0.1878429253298576 0.5008392306771531 2.0694750933335575 255 255 255
-0.1495975667522528 0.3561527206385012 1.9786690206447586 255 255 255
0.1256688176327891 0.4955862778764298 2.0492595234234994 255 255 255
-0.1003071748502984 0.3804509553661567 1.9878402471069223 255 255 255
0.0302447162476744 0.4445673750006737 2.0249656675315295 255 255 255
0.1477613446430648 0.5785638870133401 2.0623104958195078 255 255 255
-0.3210929228419017 0.5061018614206375 2.0443425527494172 255 255 255
-0.0792351120654051 -0.4198022619190205 1.8909960492710507 255 255 255
-0.0597793021425481 -0.3601475202354651 1.7684572084267767 255 255 255
-0.4349438534561888 -0.4376434028688262 1.8292580970905998 255 255 255
-0.1383245348376945 -0.2658685139261315 1.9104759923354739 255 255 255
-0.3983061110010132 -0.3517117406357784 1.8754241906675921 255 255 255
-0.7169477310753574 -0.5045193381459764 1.7918835279708465 255 255 255
-0.8810047798316942 -0.4590209064129951 1.7177788817026673 255 255 255
-1.4553558373593312 -0.6465653239005513 1.6350816953126914 255 255 255
-0.7901689928063712 -0.3261691530579408 1.7735259321144570 255 255 255
-0.9455908112787335 -0.3930355016123173 1.7523946372752204 255 255 255
-1.6666350198592910 -0.7202471145905447 1.5569935381073765 255 255 255
-1.8912618784643342 -0.7449666698534266 1.5470671066752733 255 255 255
-1.4155771507380610 -0.4593316998046400 1.6600227509613872 255 255 255
-0.0081244392840709 0.2859669022792686 1.9918464020222149 255 255 255
-0.0961812393546615 0.3126012401362173 1.9820538418275711 255 255 255
-1.5313708473949783 -1.0999924315949361 1.5227652734411046 255 255 255
-0.0242122327503671 -0.2712425291762918 1.9671367356267868 255 255 255
-0.2492893803917834 -0.3380628798989364 1.8820135395111914 255 255 255
-0.7448845145100993 -0.5842542312619263 1.5701110378956824 255 255 255
0.2712830461746507 0.0554238782383021 2.0639001138896806 255 255 255
-0.6580354275581289 -0.3719556626056735 1.7868111982036794 255 255 255
-1.5320993897248165 -0.6979305097964894 1.5267840777055088 255 255 255
0.2690904684715382 0.1841153666033519 2.0454250259858955 255 255 255
0.0962628133835969 0.1424611222096909 2.0234996514583239 255 255 255
-1.6231555050011657 -0.6468188663595233 1.5886057733623227 255 255 255
-1.4039519250245247 -0.5081226754061495 1.6461687989024356 255 255 255
-1.7122828404456938 -0.6407069965572256 1.5733403251315710 255 255 255
-1.5300754454557137 -0.4999526992204665 1.6333096674075600 255 255 255
-0.0827761194792358 -0.4175363970264023 1.8891022377122217 255 255 255
-1.5107487392294536 -1.0286236441066099 1.5786682283530291 255 255 255
-0.4425718620050868 -0.4448955200321177 1.8574513317044039 255 255 255
0.1658801726284538 -0.1268311459951387 2.0336289233291436 255 255 255
-1.5184478940965396 -0.8962931061119764 1.6124568047192902 255 255 255
-1.4173219302888735 -0.7966045731263538 1.5295335545167381 255 255 255
-0.1663666025201836 -0.1552071877076051 1.8946833285838667 255 255 255
-0.8779230814414705 -0.4727970285833463 1.7697518019183427 255 255 255
-0.8719772048211667 -0.4701652367551197 1.6585822089594051 255 255 255
-1.3073857186082845 -0.6162500767825326 1.6425758276162843 255 255 255
0.0478061176689422 0.1438902144019103 1.9940880040888143 255 255 255
0.0256202523336386 0.1788607748131456 1.9961638263783688 255 255 255
-1.9138908058971893 -0.7468885928589408 1.5659607242719593 255 255 255
-1.1200747229418737 -0.3476657403064150 1.6952965029470661 255 255 255
-1.6836070184702552 -0.5618318840742421 1.6103066797745387 255 255 255
-0.1622832687194151 0.2919838104254966 1.9989580107871519 255 255 255
-1.3983771570402268 -1.0180999171728222 1.3478833659662661 255 255 255
0.0958108281176425 -0.1728489369326579 1.7367212813778303 255 255 255
-1.3683062344912753 -0.7868249230909290 1.7992843404130361 255 255 255
-0.4990503833126034 -0.2648088403627779 1.8230341917093158 255 255 255
-0.0023762460090642 -0.0285599463706538 1.9575563152254620 255 255 255
-0.0504823560901753 -0.0528773761243997 1.9218071754422732 255 255 255
-1.5825471882629361 -1.1295932170554974 1.5701121543865248 255 255 255
-0.9346970250395091 -0.4411961271274192 1.7206083593671013 255 255 255
-0.9568686489716116 -0.4402051322077642 1.7305277302207820 255 255 255
-1.1907735750007338 -0.6675065830264025 1.6649013247817730 255 255 255
-0.9684635182401431 -0.4435296830705804 1.7379853143725361 255 255 255
-1.1832449580856630 -0.4466693025427917 1.6597240800299282 255 255 255
-0.1862630555774433 0.2718928572224570 2.1579654745626136 255 255 255
-1.3466058554646150 -1.1452726278358063 1.6314807940926057 255 255 255
-1.3946339455896570 -1.1473905635734667 1.3522139635533446 255 255 255
0.2311285169542283 -0.3239266482214204 1.7155482611626165 255 255 255
-1.3235481540591478 -1.0770637118168755 1.6395903137091903 255 255 255
0.4648694264305601 -0.1514597867230124 2.1747593182377720 255 255 255
-0.2702511297859008 -0.4607808564574572 1.8860231746185745 255 255 255
-1.3686568842984572 -0.9832744228241559 1.6352212263305939 255 255 255
-1.3663090501797259 -0.9639413931676082 1.6362249079960378 255 255 255
-1.5229450575214938 -1.0430850724827887 1.5998290255499308 255 255 255
-1.4284618852636601 -0.9690587782468925 1.6409135014950067 255 255 255
-0.2308614952775496 -0.3858243332327906 1.8995363273796793 255 255 255
-0.6374817294014510 -0.5677295622432615 1.8144215607371208 255 255 255
-1.5432367907765983 -0.9800143783580593 1.6000235363459359 255 255 255
0.1725447425292890 -0.1382802854769767 2.0134229371127184 255 255 255
0.0520482160427350 -0.1866455084556399 1.9680979300536738 255 255 255
-0.5848452549339449 -0.4948208950163150 1.7887193140464057 255 255 255
-1.4179880539951624 -0.8963248418065936 1.6314030677553024 255 255 255
-1.7015911899588367 -1.0299962447627209 1.5606080294694964 255 255 255
-1.5628035930989688 -0.9628929735951344 1.5931702872483058 255 255 255
-1.5566937547137316 -0.9552241957058152 1.5970452136851740 255 255 255
-1.4298197179002408 -0.8903420243032139 1.6291934703170368 255 255 255
-2.1248540811200680 -1.2276032836423303 1.4556879569483403 255 255 255
-1.9847013272218366 -1.1588423598819988 1.4893513964781508 255 255 255
-1.7914018166096088 -1.0172234684513366 1.5373744103283560 255 255 255
-1.2905528709312628 -0.7656018744569071 1.6633251967804989 255 255 255
-1.2592290967673283 -0.7490977984928562 1.6687582495516065 255 255 255
-1.4463390294921172 -0.8202778040972242 1.6267590331931867 255 255 255
-1.5929831226585516 -0.8925383397065718 1.5926569706293883 255 255 255
-1.4565824015396243 -0.8233106677200470 1.6247406020304789 255 255 255
-1.3158766430735684 -0.7528060169749864 1.6564846701455584 255 255 255
-1.3135242779492453 -0.7398628772125784 1.6604901946391086 255 255 255
-1.8842040840766066 -1.0089490779116752 1.5220763762086573 255 255 255
-1.4655395440986028 -0.8027401282384702 1.6232922972957091 255 255 255
-1.4560653453119947 -0.7965681046236776 1.6250088447939266 255 255 255
-1.7095348208591394 -0.9144852265381869 1.5618391773718336 255 255 255
-1.5672559140913398 -0.8431297288216033 1.6006490145322809 255 255 255
-1.2953076824182768 -0.7091256907223569 1.6700556379307065 255 255 255
-1.2578780538610264 -0.6858867157523773 1.6551679205228540 255 255 255
-0.7315991665940096 -0.4259209890415377 1.7654386128171375 255 255 255
-2.0953866303135893 -1.0840925919264337 1.4704440174481732 255 255 255
-1.3959336898632548 -0.7456376243903349 1.6397062935472677 255 255 255
-1.6846234086849430 -0.8809454966673060 1.5707372856053041 255 255 255
-1.6753909995907570 -0.8783341851782729 1.5745639920711048 255 255 255
-0.2277342044144504 -0.1748900695713604 1.8972226237605394 255 255 255
-0.2232147540868575 -0.1691110804273842 1.8870422109395379 255 255 255
-1.4047632508432009 -0.7314869198802119 1.6402029906166096 255 255 255
-2.1111319588476878 -1.0698484306285430 1.4654832827230528 255 255 255
-1.9745207158564009 -1.0022429018274126 1.5027550851303708 255 255 255
-1.6223794313773907 -0.8282778632206124 1.5902478011038701 255 255 255
-1.6941957606348357 -0.8610809526895888 1.5700431689368788 255 255 255
-1.6851801857484343 -0.8581290662346543 1.5736803916149924 255 255 255
-1.8258303023294280 -0.9229420497100083 1.5385136140993740 255 255 255
-1.5438486636956590 -0.7827389178431714 1.6009997522610959 255 255 255
-1.2900202413369146 -0.6590231437966829 1.6411384500926836 255 255 255
-1.8481945369417900 -0.9251818235944407 1.5346360637815870 255 255 255
-1.4233063094998974 -0.7145732728917815 1.6384432044542399 255 255 255
-1.4027671437284908 -0.7034288993158935 1.6400858425409996 255 255 255
-1.7651020899630820 -0.8725205429843259 1.5548897107404347 255 255 255
-1.6716203587847760 -0.8254372528683428 1.5785097575573985 255 255 255
-1.6260267707707139 -0.8044262827901705 1.5881441108877636 255 255 255
-1.4908144368744876 -0.7263769315220313 1.6258521284465752 255 255 255
-1.3666490545033161 -0.6535255451484139 1.6568458860753914 255 255 255
-2.0648548543952501 -0.9935495033363861 1.4822839475031468 255 255 255
-1.9250977045580973 -0.9232009149671001 1.5186757164816669 255 255 255
-1.7819429282679611 -0.8560765520204743 1.5497782898759205 255 255 255
-1.6372233218944379 -0.7830796090002938 1.5868025047166832 255 255 255
-1.3178156396500067 -0.6166569176244310 1.6665835425522029 255 255 255
-1.7030601157326881 -0.8009401609202128 1.5739184684247780 255 255 255
-1.4312380351160603 -0.6696856480253733 1.6422225052010440 255 255 255
-0.8495770773041595 -0.3840347492280936 1.7426531725147623 255 255 255
-2.1337894269942002 -0.9972569413626506 1.4636242413474232 255 255 255
-1.7188011129644014 -0.7934058086233159 1.5716291460615173 255 255 255
-1.4383478881012319 -0.6571720921386961 1.6352204274803945 255 255 255
-1.2941807208931875 -0.5889733739468167 1.6702912149720337 255 255 255
-1.5990693351287479 -0.7333304823346019 1.5981597582770881 255 255 255
-2.0124202142377037 -0.9209034019330655 1.4985881510152872 255 255 255
-1.4493499701440691 -0.6439914355648304 1.6114079379341846 255 255 255
-1.3079329562969897 -0.5667222660859426 1.6709324425473846 255 255 255
-1.1114419251043588 -0.4688853082004314 1.6985332951613556 255 255 255
-1.0850421566899786 -0.4535601312523098 1.7171502339461711 255 255 255
-1.0581346472668574 -0.4406742298177323 1.7247335448167402 255 255 255
-1.0988847025017365 -0.4538255620767527 1.7093325001127679 255 255 255
-1.0545295999398501 -0.4303165196063586 1.7265715503481029 255 255 255
0.0060270066670273 0.0847369344908722 1.9863751005643127 255 255 255
-1.9466629378690543 -0.8546846078732564 1.5156362696741876 255 255 255
-2.0924026683608963 -0.9260505396670524 1.4790969195951735 255 255 255
-0.8229517212795925 -0.3073956738554651 1.7864306756280341 255 255 255
-1.6677513262056798 -0.7179311103793216 1.5843888315007426 255 255 255
-1.3867212606853758 -0.5812483007609649 1.6378276845408550 255 255 255
-1.6792856380210845 -0.7139034663896656 1.5819672453539306 255 255 255
-2.1013832278811977 -0.9076707091465046 1.4776937229501055 255 255 255
-1.9492857169034501 -0.8392617130864095 1.4903985997275839 255 255 255
-1.8305671367142071 -0.7790734552177605 1.5208566159110228 255 255 255
-1.4881370463492853 -0.5798316628158704 1.6300027035941458 255 255 255
-0.0593923940293817 0.1507684155380759 1.9750761262684318 255 255 255
0.0671369751745615 0.2281704546788504 2.0123234460790389 255 255 255
-0.1157079101448084 0.1912217346309335 2.1679158718827214 255 255 255
-1.5835964633723303 -0.5538006552458908 1.6114659040212560 255 255 255
0.0811426626072889 0.2626074903076068 2.0184140429522106 255 255 255
0.1418219497067057 0.2970625530394649 2.0331564923366967 255 255 255
-1.5200000341025524 -0.4895352621825278 1.6273601621231255 255 255 255
-1.8004357606456853 -0.5801327964364974 1.5655266579204135 255 255 255
-1.4435323291567221 -0.4106618859476008 1.6406807401881867 255 255 255
-0.1223100195716986 0.2332104133905828 1.9725570154603638 255 255 255
-2.1827506986967764 -0.7228705060607110 1.5532982159193391 255 255 255
-2.3053842369631141 -0.7757262815250500 1.5201668533320571 255 255 255
-2.1738534928684885 -0.7116531817308653 1.5551829550258844 255 255 255
-1.7561652805494701 -0.5228282833824700 1.5743478664873756 255 255 255
-1.8182339303810400 -0.5367725799365026 1.5607528958019952 255 255 255
-2.4872228433150685 -0.8248630229487577 1.4369268667869477 255 255 255
-0.1753802866794452 0.3084596942736955 1.9740076564918674 255 255 255
-0.1891416518301514 0.3070066553286761 1.9579972168833848 255 255 255
-2.2205630811156105 -0.6455053240145112 1.5473890095389633 255 255 255
-1.6546708202123162 -0.4023304554918561 1.6043946802781566 255 255 255
-2.2322507579977362 -0.6439355547391959 1.5436198330663675 255 255 255
-1.6542819708467840 -0.3818532081751842 1.6045718148556016 255 255 255
-1.6648199091689984 -0.3800271840753742 1.6029671143850526 255 255 255
-0.2666912033205415 0.4349243367955937 2.1439608096334872 255 255 255
-0.2415436044452450 0.4331973899681687 2.0755949571213073 255 255 255
0.2426945851716074 0.6031927998233950 2.0386492893870782 255 255 255
-0.2297379535177368 0.4587266662817147 1.9626974347458948 255 255 255
-1.9362513382669402 -0.2821552783581972 1.5474089357319576 255 255 255
-0.3769947127298285 0.6381488253606218 2.1544621639986481 255 255 255
-0.3369381464847880 0.6471032319771606 1.9559726817364407 255 255 255
-1.3859170429096697 -1.2191430980660507 1.6219299427768465 255 255 255
-1.3910873989386574 -1.1880943085879427 1.4314848022562074 255 255 255
-1.4287404856109522 -1.1973115018286704 1.5163931876208796 255 255 255
-1.3890085853652518 -1.0838984732630861 1.3475791129978099 255 255 255
-0.9653949592768427 -0.8232201659074569 1.9445441134099974 255 255 255
-1.4926972681575499 -1.0743113430211819 1.5913449560994442 255 255 255
-0.0851026695687820 -0.3815084121684814 1.9551137982911864 255 255 255
-0.2262856916760189 -0.3969957589599338 1.9582434355922684 255 255 255
-0.4650062482532301 -0.4998440769927313 1.8311287827900560 255 255 255
0.4690682521499629 -0.0141677724617530 2.0676467959390203 255 255 255
0.0110826928881310 -0.1991377063978813 1.9803330715839285 255 255 255
-1.7026937424140272 -1.0324978389083186 1.5611295143710802 255 255 255
-0.6222691597957307 -0.4740295900063768 1.8792155837764668 255 255 255
-0.9000669661935001 -0.6487052422119030 1.3011851248103576 255 255 255
-1.0529363411564181 -0.6889174467243262 1.6681548762992418 255 255 255
-2.1486950482201088 -1.1516897796926551 1.4541928985407431 255 255 255
-0.1984208133355634 -0.1769495217837300 1.9007123704912621 255 255 255
-1.8167528452666213 -0.9406992249243020 1.5409641516224282 255 255 255
-0.0359882420965878 -0.0755324948257829 1.9473536619276572 255 255 255
-1.4135932733771202 -0.7310459777230875 1.6719208959966965 255 255 255
-0.2179447494678139 -0.1304291170671825 1.9076873246640949 255 255 255
0.4925440840628686 0.3309170212691874 2.1162627920269368 255 255 255
-1.1513561520613882 -0.4423572925888268 1.6896975425709935 255 255 255
-1.4359796242526710 -0.5068969412731159 1.6453990773672811 255 255 255
-0.1359994945924412 0.1675387473426797 2.1334585208277907 255 255 255
-1.5717326954660775 -0.4307777090300406 1.6218457256758962 255 255 255
-2.4791830090780387 -0.8533852858433155 1.4275298370179357 255 255 255
-0.2196012185375675 0.3808216667510775 2.0728400273381506 255 255 255
-2.6135461348232614 -0.5823848889051735 1.4166411690483915 255 255 255
-2.3389435851301839 -0.4437186565300276 1.4778803407979497 255 255 255
-1.9699102567315174 -0.2456911682093351 1.5426518450605657 255 255 255
-1.4180546683958442 -1.1633734799148898 1.5850475171665437 255 255 255
0.6170104174512200 -0.1279169059066319 2.0800628129763070 255 255 255
-1.3988179165188956 -1.0689805620088961 1.4148118925466644 255 255 255
-0.5994997306213281 -0.6334525888147989 1.8194460905164123 255 255 255
-0.8081166361314371 -0.6841885916691117 1.5228354025898854 255 255 255
-0.7676862209323225 -0.6479521546228799 1.4884963036044496 255 255 255
-1.4251282436985604 -0.8868041804040774 1.6523776595411359 255 255 255
-1.3680848274884601 -0.7465797523385558 1.6889366094793861 255 255 255
-1.6949134371490686 -0.8641909285980028 1.5711724201537480 255 255 255
-0.8390692738613896 -0.4712084880721086 1.6070409332462132 255 255 255
-1.8485845397329719 -0.9272056967707176 1.5327981691209853 255 255 255
-1.4246243408724863 -0.7145751840799901 1.6365469819956751 255 255 255
-1.9260854070275535 -0.9268210483437964 1.5176721642944031 255 255 255
-2.1009362219238605 -0.9097438093316346 1.4780767813294560 255 255 255
-1.9649519340224710 -0.8416190041004563 1.5129870583895411 255 255 255
-0.0025285402089007 0.2033016023130899 1.9934057503736886 255 255 255
-0.0301540770652722 0.3846420634458221 2.0032947009274209 255 255 255
-2.4802230303401300 -0.7693542058113702 1.4236593726631634 255 255 255
-0.2671756343416491 0.4357685578721986 2.1451951726421452 255 255 255
-1.3719183282453353 -1.0288717604896456 1.6311908819039562 255 255 255
-0.7309943839309339 -0.7178349415143633 1.9438475311887131 255 255 255
-0.9933618234042072 -0.8165228700207121 1.7065724993351719 255 255 255
-1.5293218505910682 -1.0665307443314687 1.6099018504204043 255 255 255
-0.7263149456424621 -0.6444351350948032 1.4818301701262251 255 255 255
-0.1175886277962562 -0.3291550995671694 1.9627040072175432 255 255 255
-0.7746038883222548 -0.6458669249337770 1.5313565365424604 255 255 255
-0.8182754764533366 -0.6609691642218887 1.5252870411583017 255 255 255
-0.3893472127385082 -0.4463962738123148 1.8226929417982916 255 255 255
-0.8454555498330903 -0.6700328437566446 1.5297733158440896 255 255 255
-1.3770907634514771 -0.8286669399497582 1.6528613593297496 255 255 255
-0.2021901007087573 -0.1806067051186584 1.8895113777047374 255 255 255
-1.0861393498378613 -0.6016114381563991 1.6878027522281034 255 255 255
-1.9751307054244887 -1.0128553497395014 1.5055623598862358 255 255 255
-1.8155733273123023 -0.9372143659720644 1.5413211350829785 255 255 255
-0.7791095039666942 -0.4846159279513178 1.4698850761445112 255 255 255
-0.4746539010730679 -0.2781163161925858 1.8236090531361742 255 255 255
-1.3192651241417206 -0.6851303352754838 1.5554094352651675 255 255 255
-0.1844590586142294 -0.1148485564699295 1.9129598820917728 255 255 255
-1.4999541159864851 -0.7420638672595665 1.6225912633170410 255 255 255
-1.0902731492251192 -0.5544364668332140 1.6964893000446699 255 255 255
-0.8824997835832482 -0.3808891875683183 1.7845816980929392 255 255 255
-1.6679126115490441 -0.7196054431438247 1.5570632093572101 255 255 255
-0.0636508601944044 0.1027852041393138 1.9693614712036585 255 255 255
-2.3522346373811178 -0.9666824581136035 1.4474778010426768 255 255 255
-0.1612355420990299 0.1933047371831766 2.1529398899567171 255 255 255
-0.1002775726419451 0.1949793506490236 1.9751478284229957 255 255 255
-2.4703866780678236 -0.9140841833770903 1.4807919670851266 255 255 255
-0.2180092082232346 0.3916490195266951 1.9705152739581919 255 255 255
-2.2337718591255591 -0.3943925701753292 1.5098859858957399 255 255 255
-0.1353453993868188 0.6305255497742478 2.0102581063520746 255 255 255
-1.9631500147636460 -0.2274311451321852 1.5359152480785143 255 255 255
0.0762540678924511 -0.2225468425013299 1.9664276427839522 255 255 255
-0.7515866027563693 -0.6282897160964769 1.5473673832088108 255 255 255
-0.7662660716400271 -0.5627837705071355 1.6989032987717287 255 255 255
-0.7286235195404380 -0.5289869014251583 1.7191875627110278 255 255 255
-0.7764902747205484 -0.4857785136575603 1.4624584357842583 255 255 255
-0.0764213046172029 -0.1072410782949431 1.9369151966254368 255 255 255
-0.0538817312558804 -0.0574050529265016 1.9404507533779949 255 255 255
-0.5494219077723459 -0.2085787844820250 1.8498441798884766 255 255 255
-1.5110377291960457 -1.0798400937043411 1.6395645492021069 255 255 255
-1.5441881579990682 -1.0717527430410456 1.6217070194560641 255 255 255
-1.3673989023309412 -0.9594538170840878 1.6144525755950312 255 255 255
-1.3963117363607429 -1.1403688523726294 1.4344806257934017 255 255 255
-1.4811816055525453 -1.0421453088710340 1.4158857483051359 255 255 255
-1.3738510302818745 -0.9759355170222531 1.4768285856153380 255 255 255
-1.1119165055039297 -0.5902021366882190 1.5926558333054219 255 255 255
-0.8797634315392582 -0.4577715551865378 1.5229832785779767 255 255 255
-0.0667188286238763 0.0806453852778162 1.9984497856740999 255 255 255
-0.2649818650066503 0.3151135008227968 2.1083819096143275 255 255 255
-0.1209317033583139 0.2554124351926277 2.0002516796783985 255 255 255
-0.7455203424322460 -0.2463683857828224 1.7964353980031549 255 255 255
-1.4015533972244221 -1.1058347466634961 1.5193953177668407 255 255 255
-0.3593988239023271 -0.5736083111068561 1.7836615972281638 255 255 255
-0.2786048082915594 -0.4545155300260247 1.9294192875526430 255 255 255
-0.9842956249869945 -0.7623355743270779 1.6073432866657593 255 255 255
-0.7119208504550515 -0.5647795571944670 1.6133440342256891 255 255 255
-0.9678408933948019 -0.4973820058144922 1.7487632966432134 255 255 255
-1.1401972690126847 -0.4952912894296931 1.6936342790535930 255 255 255
-0.0091826209442247 0.2609351626160610 1.9968504238113283 255 255 255
-2.4390881387966701 -0.8791102752480437 1.4234861928405422 255 255 255
-1.7038430267470830 -1.5901184141573803 1.5919549381801286 255 255 255
-0.3675771972635233 -0.5509874793623060 1.7739467302104068 255 255 255
-0.6834258800893380 -0.4740549515506594 1.8032472707109815 255 255 255
-1.1121633711523500 -0.6818815270006984 1.6406919019597157 255 255 255
-0.7937025756183239 -0.2859424251439540 1.7762645793991936 255 255 255
-2.2123705994150722 -0.9736978078408889 1.4234915919419091 255 255 255
0.1388543552266128 0.1924944548038816 2.0239558765211485 255 255 255
-2.3726708576175213 -1.0220602610622329 1.4135333586015610 255 255 255
0.0926942048803447 0.1851693378729201 2.0137196582500034 255 255 255
-2.1424053734143369 -0.8453871110341441 1.5076740767954693 255 255 255
-2.4423553060992322 -0.9077124205928204 1.3882003890958159 255 255 255
-2.4534835181083006 -0.8645813635486452 1.3792454215834462 255 255 255
-2.5057904067116166 -0.7614102357342163 1.3898957858159064 255 255 255
-0.2032009138691429 0.6165332257817289 1.9717466166545066 255 255 255
-1.4271383207471735 -1.2607006725617267 1.5317686023378583 255 255 255
-1.5067706977085402 -1.1230462299260373 1.6207603048644721 255 255 255
-0.4281544397056969 -0.5523120543874005 1.7183838739514421 255 255 255
-0.1059268080445905 -0.3860639971716759 1.9134425112796372 255 255 255
-0.0783659786552189 -0.3133344804059961 1.9448795370679495 255 255 255
-0.7027713515962344 -0.4101563278972505 1.7522020432596939 255 255 255
-1.3007771710759006 -0.5703772118402337 1.6528020308650619 255 255 255
-0.0831537533680802 0.1056010241057148 2.0121631048498116 255 255 255
-2.4796963446447275 -0.9009060329874423 1.4670542164014497 255 255 255
-2.4716936399503471 -0.8168936923222438 1.4198303045558176 255 255 255
-2.0446010102902994 -0.2571089662105220 1.5525680911931605 255 255 255
-1.5357386143683418 -1.4751480650777831 1.5034405358116529 255 255 255
-1.9156966874162507 -1.6704355835461140 1.5217243451150502 255 255 255
-1.4344412310232024 -1.1160474806220877 1.6255283905094196 255 255 255
-0.0963241222833333 -0.4093329055938555 1.8709736659028184 255 255 255
-1.4088407613474025 -1.0191249026622029 1.2616391946178616 255 255 255
-0.7616311092276500 -0.6616493821708606 1.5505495823014432 255 255 255
-0.0881057371005527 -0.3183217481350060 1.9158083654895997 255 255 255
-1.0931560863973389 -0.6001479372919093 1.7097472324242693 255 255 255
-1.7828971529768032 -1.0367104538495311 0.6941585162233372 255 255 255
-1.0614270558931076 -0.5503263774116938 1.6633163304495930 255 255 255
-0.8290812924201736 -0.3852797687937841 1.7547290409150715 255 255 255
-1.1132094339498046 -0.4587845264323557 1.6964800438261143 255 255 255
-1.8029497433460939 -0.7654847916885457 1.5608398765885383 255 255 255
-1.4868230273233671 -0.5775793053544285 1.6215094222650408 255 255 255
-0.1659451172249615 0.2148602132522094 1.9850553439845049 255 255 255
-2.4621560294723617 -0.8766897458008482 1.4698605755284140 255 255 255
-0.2083461002350586 0.2625819516646528 2.1414233878192928 255 255 255
-2.4932872160284489 -0.8038523069365251 1.4023368327537256 255 255 255
-2.5183979246269192 -0.7800501458231393 1.4321788943572087 255 255 255
-2.5014461433294457 -0.7449905433714035 1.3882693277160598 255 255 255
-2.5626417896461913 -0.6787217860006418 1.4066979687502883 255 255 255
-2.5873233634089647 -0.5436152827085730 1.3567255183476163 255 255 255
-1.9565668725974310 -1.6977345472831584 1.4589115321675876 255 255 255
-1.4506011020240859 -1.1926108555287316 1.4506407266309123 255 255 255
-1.4000091430177690 -1.1524611883860354 1.6349581096119792 255 255 255
-0.3806297200296833 -0.5751898593970478 1.7002171769749577 255 255 255
-0.2880529673566200 -0.4872333903224357 1.7787988024134860 255 255 255
-0.9274762102397669 -0.5221785120611603 1.4831459775745559 255 255 255
-1.0732828350461585 -0.5097880382899227 1.6395959825560129 255 255 255
-2.1308053449881186 -0.8360120790151578 1.5482882220243219 255 255 255
-2.4718948228924553 -0.8693984121277301 1.3905546018054959 255 255 255
-1.4104540908645049 -1.1611900525231569 1.4635613914621928 255 255 255
-1.0855638399712495 -0.3840654148488951 1.7008604371707392 255 255 255
-0.2944354254383403 0.5182615412126008 2.0204450428440115 255 255 255
-1.4202889666443816 -1.0537212341410598 1.4201618194390946 255 255 255
-0.9379659788145703 -0.5774050556057212 1.5868167448161299 255 255 255
-0.1235541180529152 0.1266296269526763 1.9522599430675527 255 255 255
-0.2095542465395244 0.2246681727683746 2.1451889975844427 255 255 255
-0.1345014069256010 0.1932100437924138 2.1614694688568754 255 255 255
-0.3312213474732552 0.4295666530809364 2.1069054064779111 255 255 255
-1.4009026667372355 -1.0864234297243489 1.3138489542944196 255 255 255
-0.5226739281145562 -0.5080654514400396 1.8500594223378153 255 255 255
-0.3987439944708798 -0.4010521860699490 1.8650584542217072 255 255 255
-0.1015602730334981 0.2981253876942753 1.9814905533356557 255 255 255
-1.3380985779479750 -1.2067535502334179 1.3849605158595450 255 255 255
-1.0022934421523235 -0.7612054151739807 1.5985050895712354 255 255 255
-0.7150720330177199 -0.5702124975256856 1.5764493919950888 255 255 255
-0.5993364617359226 -0.4873552146857014 1.8056324759527027 255 255 255
-0.5287241819342563 -0.3017672759565561 1.8186938890736206 255 255 255
-2.8930612131785525 -1.2797050754826169 1.2845887805566494 255 255 255
-1.3935168692049265 -0.5450535425296714 1.6176267967142617 255 255 255
-1.3898667065525387 -0.4346357389260249 1.6428616113303012 255 255 255
-0.5956467047073726 -0.6076295865672615 1.8181341301100842 255 255 255
-0.8740609451529666 -0.7200509427749150 1.7758618278008225 255 255 255
-0.8743192705790768 -0.5735759293869025 1.4344342976467548 255 255 255
-0.8995448828661847 -0.5496389942067894 1.4726797124025715 255 255 255
-2.4560464524422909 -0.8585937160316415 1.4283340493125887 255 255 255
-1.7330075991585310 -1.6087430735561581 1.6136856518905827 255 255 255
-1.3605596223861021 -1.2523235186018356 1.4207600010507426 255 255 255
-0.3062999062938761 -0.4595323743770653 1.8197875521701574 255 255 255
-1.4760800274304031 -0.8908290797957676 1.6961162618451144 255 255 255
-0.8740073232122988 -0.5074975057431541 1.4664358628517071 255 255 255
-0.2412111153372869 0.3603039258689096 2.0814641475976590 255 255 255
-1.9144665309866409 -1.6780819339335273 1.4357106580895751 255 255 255
-1.6481187432776574 -1.5584816385667044 1.5751138577322266 255 255 255
-2.9188847266112603 -1.3234615388778117 1.2975491609374821 255 255 255
-0.1789370870978537 0.2792864005228841 2.0774749285467706 255 255 255
-2.0656958942086092 -0.2888153676527780 1.5049407458540429 255 255 255
-2.8701201765149200 -1.7098838948034887 1.2805782804520227 255 255 255
-0.9258877037740585 -0.6976136950566801 1.5965241252266207 255 255 255
-0.8761948138522042 -0.4568807019251864 1.5365289237319431 255 255 255
-2.8251485744857119 -1.3485805951141105 1.1706533528522827 255 255 255
-1.8143229401535845 -0.9660879423139956 0.5309367102388332 255 255 255
-0.7033099717191559 -0.5963031050883750 1.5631272800733940 255 255 255
-2.9494349173162533 -1.3766226912489792 1.2713975182895041 255 255 255
-0.9390574842424249 -0.3750923575708384 1.6279181934510261 255 255 255
-0.8171904745344972 -0.6685990179779280 1.6050063483522070 255 255 255
-0.7714333639626457 -0.5543655557695065 1.7474535253259362 255 255 255
-2.4001616190111505 -1.0080666156385778 1.4135312423828843 255 255 255
-2.5139165238724992 -0.7687152547169516 1.4196400173903712 255 255 255
-1.3168247580922787 -1.3016073477207020 1.3719119343214117 255 255 255
-1.4352038379711873 -1.2610923777686860 1.5772325985821676 255 255 255
-0.4485100392614860 -0.6116730373960740 1.8219877587655442 255 255 255
-0.3517050195214388 -0.5213678405414643 1.8260774219744293 255 255 255
-2.7410641886287692 -1.7092545988487355 1.0523764898929091 255 255 255
-2.8789740443711738 -1.7292996746376055 1.2743105481606003 255 255 255
-1.5610669126762104 -1.0831699965216934 1.4856614018310950 255 255 255
-2.9178508163326029 -1.7113892294055439 1.2953454491996865 255 255 255
-0.7146760584316922 -0.6413653711686164 1.5970975278410116 255 255 255
-0.7531155057530027 -0.5998808523252889 1.6456269988399754 255 255 255
-0.6417997708122312 -0.5200960042849987 1.8160754426179597 255 255 255
-2.6550422713585471 -1.4346593974687483 1.0966928890272638 255 255 255
-2.7486352254838975 -1.4758791678836469 1.2280336316820062 255 255 255
-0.3759634371563335 -0.3949374259981858 1.8837879432966478 255 255 255
-0.4350883595864128 -0.4243773221574449 1.7840961179167616 255 255 255
-1.3366750417562967 -0.7803706389921392 1.6558667331578709 255 255 255
-1.7436905667463947 -0.9472169512857240 1.5575621062637250 255 255 255
-1.2825374619742742 -0.7012774974705243 1.6485966234399112 255 255 255
-1.7765260490917072 -0.9882829398367621 -0.1623122933034660 255 255 255
-0.8180429897254617 -0.4724100905965014 1.6727403518474127 255 255 255
-1.3433174158994732 -0.6791165221416765 1.6497161830405755 255 255 255
-2.9061522207086754 -1.3053254449332479 1.2927195759934307 255 255 255
-0.8835098874389065 -0.4953379020485830 1.4229405815973495 255 255 255
-0.9019450692777573 -0.4219972124704789 1.7292099040923272 255 255 255
-2.3815738927270886 -0.8998442947052389 1.4240253733983854 255 255 255
-2.4371266103716973 -0.9293803115541954 1.4220830188707509 255 255 255
-2.4623644627496279 -0.8919870564040111 1.4257594716361766 255 255 255
-1.4400296263552899 -0.6322457125765774 0.1565559844385573 255 255 255
-1.5163144127269326 -0.6479419633751284 0.1159437897671467 255 255 255
-1.5149800603961427 -0.6266505935965010 0.3674818379541849 255 255 255
-1.5567992147944461 -0.6430622109195834 0.3242899138322324 255 255 255
-2.4659165776038598 -0.8455660756894372 1.4074641038720230 255 255 255
-1.5355463331589245 -0.5975701975262098 0.4053337010923084 255 255 255
-1.5494837111544957 -0.6093993703525904 0.3875539211699435 255 255 255
-0.2224222148431254 -0.0526955905646820 1.9200345867036788 255 255 255
-1.4980510275127852 -0.5199012786982273 0.2532890624213442 255 255 255
-1.4776893479740245 -0.4965142420208846 0.2724555640862931 255 255 255
-1.6596993981063846 -0.5278802763494460 0.4596434199579130 255 255 255
-3.4096214764399448 -0.5440655174977147 1.1790873800613184 255 255 255
-2.6934735908999805 -0.2868874445252461 0.1103568628526790 255 255 255
-2.5369579929402919 -0.1736522619163587 0.4236752208275583 255 255 255
-2.1257318705856756 0.0106431807684501 0.5012595456411356 255 255 255
-2.1552706118925258 -0.0153891435395299 -0.0560156332111124 255 255 255
-1.9056903645110719 0.1090046972453628 0.0343820128945520 255 255 255
-1.7385082960510090 0.1704200256863782 -0.0601544917866210 255 255 255
-1.0648624811549667 0.2521787301253698 0.0960387228795843 255 255 255
-1.5725784748522171 0.2706948562409076 0.4053284902747407 255 255 255
-1.4055391551063663 0.2465588708465301 0.0038034989054858 255 255 255
-1.5111280113052452 0.2595603121438819 0.0696884178171682 255 255 255
-1.3206954592812421 0.3955799697802160 0.4698687770114152 255 255 255
-0.7633347734577474 0.4020445939075734 0.1700932104392698 255 255 255
-1.2869558483459986 0.3715707737036792 -0.1306483399502101 255 255 255
-0.7926957510432058 0.4121644309506677 0.1305786169943950 255 255 255
-1.1854625508662930 0.4230936294942506 -0.1095311925323732 255 255 255
-1.1062195658026379 0.4585194766319439 -0.0682186236084670 255 255 255
-0.4810755506437264 0.5621003417271984 0.2041596346801360 255 255 255
-1.1992670438332911 0.4445084377791669 -0.7515666816024464 255 255 255
-0.9200278094455481 0.5623488510156016 -0.0411741184057504 255 255 255
-0.9160449697324542 0.5649828379235169 -0.0267228504259518 255 255 255
-0.7519364532892330 0.6529981602813510 0.2871888737732537 255 255 255
-0.4665547228170128 0.8268497502247096 1.3617646720312457 255 255 255
-0.9981837965913609 0.5992453403728266 -0.2652363546923362 255 255 255
-0.9481345857000330 0.5723852957188900 -0.4017979525329567 255 255 255
-0.6882486327594592 0.6730007142695925 0.1440307633966449 255 255 255
-0.6450765852554952 0.6913779473191410 0.1581079147596833 255 255 255
-0.6352907786821542 0.6947661536278371 0.1778800474800222 255 255 255
-0.5281446844541102 0.7720418336971399 0.6562364600616868 255 255 255
-0.7748013850172404 0.6344671898516512 -0.2857764724961003 255 255 255
-0.6666007981369173 0.6835006176723513 0.0211340957076063 255 255 255
-0.4868360058613124 0.7662558999801434 0.3834010335163669 255 255 255
-0.3368892000813599 0.8661912447362455 0.9553983596407472 255 255 255
-0.3410283493069457 0.8762079339908455 1.0033489961566806 255 255 255
-0.4706064754047579 0.7896661172419721 0.3779730551811038 255 255 255
-0.6797329716503686 0.7028410220999635 -0.2341502172521519 255 255 255
-0.6877084408925240 0.6926091371295329 -0.4280319730551119 255 255 255
-0.2220682648309660 0.9251561160619259 1.0164153299056902 255 255 255
-0.6624928627624791 0.6891517855203285 -0.7169297380739685 255 255 255
-0.2636765028216788 0.8727282349955716 0.2960876022961001 255 255 255
-0.1545728516464651 0.9550259048453330 0.7739827646634507 255 255 255
-1.3725969912743210 -1.0871895198608499 1.3637862828974932 255 255 255
-2.8833204277434348 -1.7244846049139584 1.2711567588475177 255 255 255
-0.6741212877619396 -0.5844703961133169 1.5954815440768748 255 255 255
-0.7678562503441699 -0.6130145968834635 1.5384946806688484 255 255 255
-0.9387953097983551 -0.4656406914495601 1.5791599255813873 255 255 255
-1.0849613552142880 -0.4847697134671130 1.7711822388699876 255 255 255
-0.8877661871023204 -0.3859996809582329 1.7610705662982102 255 255 255
-0.1230428904972172 -0.1031475079124267 1.9203533964128443 255 255 255
-1.5529956679470747 -0.5056326238135482 0.3110114644983524 255 255 255
-2.9617457565036940 -0.3644417988602964 -0.7461567716644462 255 255 255
-2.0891432451309013 0.0406371308973668 0.3801089010991501 255 255 255
-1.9158246674364561 0.1128579676840342 0.5138416867549567 255 255 255
-1.0885707632172781 0.2517203966997859 0.0763259221850676 255 255 255
-1.0592904082332131 0.2774506575850050 0.0941615759222866 255 255 255
-0.7884226598373885 0.4017680022874823 0.1505058235513207 255 255 255
-1.1596152949548357 0.4556631068748871 0.1076562584270402 255 255 255
-1.1911857209581136 0.4249432244309485 -0.1323515682716065 255 255 255
-0.8586219672808122 0.6247101684989774 0.8896398086027526 255 255 255
-0.8141518171794901 0.5732268381699868 0.1754088541632268 255 255 255
-0.8791523517241639 0.5797444768479929 0.0859675702945442 255 255 255
-0.9069102960921551 0.5540321443329601 -0.1596158680364148 255 255 255
-0.8397173476172997 0.5825262674996514 -0.0010205525029150 255 255 255
-0.4645489389756516 0.8492721933345981 1.5496155996198038 255 255 255
-0.8039485872272047 0.5943659289621441 -0.1204832732827450 255 255 255
-1.0679537427805132 0.7345309485148162 0.4741383802127040 255 255 255
-0.4304825456776786 0.8553606447313142 1.3285322707784504 255 255 255
-0.6764822405251882 0.6697689314060208 0.0196449772103988 255 255 255
-0.3405820675461122 0.8699212351342327 1.0266135953400894 255 255 255
-0.7177113515340512 0.6820600801043575 -0.3459928209464120 255 255 255
-0.4892752258244963 0.7589002927573776 0.1894386997787452 255 255 255
-0.0161565733744133 -0.4629814667425096 1.8528972996787267 255 255 255
-0.3052351459963729 -0.3057907721677839 1.8265493902807481 255 255 255
-2.4269368178502182 -0.8766799306629212 1.4032658786184031 255 255 255
-2.4425674329367926 -0.8496636956014491 1.4331644114576578 255 255 255
-1.4970630831633405 -0.6080032869111605 0.1271475540195783 255 255 255
-1.3599890872976821 -1.1122374209192740 1.4774038034915944 255 255 255
-1.3843273975636619 -1.0846244545487949 1.3416056281116493 255 255 255
-0.3574896576333114 -0.5482714365023544 1.8079946069468926 255 255 255
-0.2632629551226815 -0.4650232724270031 1.9031320272843342 255 255 255
-0.2696334930210058 -0.3783383385689477 1.2594064121737387 255 255 255
-2.8206044477958114 -1.2705781306975292 1.3167808830641636 255 255 255
-0.7082650598306834 -0.4058255048322210 1.7569465672031646 255 255 255
-0.8763598944710624 -0.4502276461431887 1.4482466498889606 255 255 255
-0.4385287532863389 -0.1577289785340230 1.8736923773541010 255 255 255
-1.4340465463605567 -0.6162886497300140 0.0401898876293221 255 255 255
-0.8119423995247854 -0.2560937129886453 1.7828768964006563 255 255 255
-1.5027933409378282 -0.5793427219069889 0.0847972250425408 255 255 255
-2.9660948779567757 -0.3637610345248798 -0.7448893914204926 255 255 255
-2.3452304436169769 -0.1049321027299497 -0.1892351068275460 255 255 255
-2.3767494715301201 -0.1227117840152125 -0.2467684356892166 255 255 255
-1.4680338328115434 0.1722499768407943 0.0179208064311229 255 255 255
-1.0816114977559885 0.2599949515919163 0.0707227935721697 255 255 255
-1.6249692157897817 0.2740344230045067 -0.1477002460935641 255 255 255
-1.4696874335800416 0.3022168006148677 0.0282575608239268 255 255 255
-1.4521018060993978 0.2970075474063920 -0.0846092850556359 255 255 255
-1.3890059453708909 0.3222332013216546 -0.0585181004993083 255 255 255
-1.4565661241534045 0.3010767566866867 -0.1922611913106662 255 255 255
-1.4298061940437812 0.3175220741014264 -0.0828380995036433 255 255 255
-1.1713239184840658 0.4544888280810680 0.1136201513371291 255 255 255
-1.1953986688779761 0.4242310163311726 -0.1352330334009606 255 255 255
-1.1129773695880241 0.4492789113500679 -0.0844464848309396 255 255 255
-0.8856480500072990 0.9451737693638189 2.3958380281713660 255 255 255
-0.9203615732762698 0.5520486694887110 -0.0267880061957810 255 255 255
-0.8365122542520247 0.5814512876589759 -0.0032061649822439 255 255 255
-0.8336122249701097 0.5926029412330389 -0.0495692466708340 255 255 255
-0.8241355121934131 0.5999423767155636 -0.0219465692089660 255 255 255
-0.8038910412579963 0.5923186579181430 -0.1190825229491379 255 255 255
-0.7576886693421777 0.6200345554761608 0.0190869082128835 255 255 255
-0.5329741984494187 0.7423058392594520 0.6378492269296344 255 255 255
-0.5515026470277067 0.7324188077587550 0.1501826508485657 255 255 255
-0.4899460473939854 0.7614800123314812 0.1911032617424553 255 255 255
-0.4735134986346281 0.7917406509917803 0.1480743814658332 255 255 255
-0.2583333086103443 0.8912795941982775 0.5801333796957873 255 255 255
-1.3605815383957847 -1.0770501698004047 1.3671735273066019 255 255 255
-0.8092180437311276 -0.5886970811615384 1.4148992897986092 255 255 255
-0.8501416905283645 -0.5164023082825953 1.4469181819683028 255 255 255
-2.6406120830180688 -1.2093117782047380 1.1974150905971337 255 255 255
-2.4356309918016255 -0.9114768526726782 1.4218472286519415 255 255 255
-1.5427372035288676 -0.6656733920275799 0.1489849263303330 255 255 255
-1.0760366680203246 0.2768618336331529 0.0798131063203436 255 255 255
-1.5723074258177974 0.2993974271499169 -0.1386075004380380 255 255 255
-0.7526802641923798 0.4165839794094431 0.1372882103310262 255 255 255
-1.1628741966290059 0.4078175571878651 -0.2079695087074338 255 255 255
-1.1857483462909335 0.4622572421728174 -0.3560405348475735 255 255 255
-0.7971714612022613 0.5834143758342282 -0.1164945332644383 255 255 255
-0.6976682563014096 0.6394299109624701 -0.0855277984874174 255 255 255
-0.4420722192440274 0.7619596171222969 -0.0283732293445391 255 255 255
-0.7486818061936109 -0.5675672371634777 1.7730298147037367 255 255 255
-1.6853951463106185 0.1771207678908294 -0.2261625482087668 255 255 255
-0.4776736662415644 0.8433535014147113 1.8545042414979758 255 255 255
-0.7491813609450553 0.6373154486440342 -0.0317327743742166 255 255 255
-2.8063376274448428 -1.7117097131187913 1.1291958592039588 255 255 255
-1.4121272800971314 -1.0201565288968522 1.3716762002107030 255 255 255
-0.9699183712875260 -0.6356144084551955 1.7035729767472914 255 255 255
-0.8849531809408322 -0.4577684214357544 1.5219707102944202 255 255 255
-1.4057026979609903 0.1475207924802016 0.0120307717576024 255 255 255
-1.4962936706294698 0.2405428295353707 -0.0467436243360306 255 255 255
-1.4418799088051575 0.3149951970191271 -0.2271606426300581 255 255 255
-0.7003429591364192 0.7595117556744548 2.0059451619234316 255 255 255
-1.1825068489999122 0.4071985364757092 -0.1996322925102167 255 255 255
-1.1235017203145494 0.4488142229198714 -0.0702281865431420 255 255 255
-0.7230864662669936 0.6207831635255211 -0.0987628454295708 255 255 255
-1.4428590442670211 -1.0673704573207541 1.4588289908179970 255 255 255
-1.8095328195922527 -0.6918328055946744 1.5280131492759383 255 255 255
-1.4481151873742526 0.2721237266768077 0.0028697310381967 255 255 255
-2.7769097204402771 -1.4253080418820425 1.1681648085280978 255 255 255
-1.4016373068166117 -1.0693168392073671 1.3434794420741178 255 255 255
-1.4654312302177637 -1.0668029734828774 1.3850802062838827 255 255 255
-0.4106763994630074 -0.5269172986699748 1.7559403291064242 255 255 255
-0.1568444403479137 -0.3892998893481424 1.9399966354597094 255 255 255
-1.4134410364918075 -0.8763114769942653 1.6274713544985602 255 255 255
-2.6659091874866125 -1.3868516396339725 0.9662202466873125 255 255 255
-0.4657044194206962 -0.3857131668273179 1.8463106332847177 255 255 255
-3.8027904411724336 -1.7459497930637813 1.0746852394262389 255 255 255
-0.8735263642244215 -0.4955422692708071 1.7243842733086918 255 255 255
-1.4961891877757560 -0.7141582313748215 1.6198442604115912 255 255 255
-3.9081461098474328 -1.6243582771183585 1.1501944634587673 255 255 255
-1.7317062800931631 -0.8241333756107677 0.4591964252986599 255 255 255
-3.8859232972190778 -1.5655139355863643 1.1087625179427043 255 255 255
-2.1297907198177608 -0.8448912382734415 1.4979036466184006 255 255 255
-3.9108210507656551 -1.5309066886438432 1.1202955594802475 255 255 255
-1.4339668825278231 -0.5797073085500176 1.4094386311818228 255 255 255
-2.4449660745171209 -0.8567367133025331 1.3739366341155552 255 255 255
-1.5988756393187220 -0.6298544889633206 0.0628233542591410 255 255 255
-1.5308357889923738 -0.4868258314051959 0.2262288954357805 255 255 255
-2.5856820754207046 -0.1629395778118279 1.3650349505233628 255 255 255
-2.6155142015026840 -0.2042517030553058 0.4774399618210605 255 255 255
-2.6086483697397549 -0.1778102692770032 -0.3225509265342001 255 255 255
-2.2678995737634668 -0.0501762156197338 0.0725870494151080 255 255 255
-2.0956515874637249 0.0378872921045444 0.3629388066149124 255 255 255
-1.6343437677542791 0.2548291382409982 0.6893107907270970 255 255 255
-1.0978262847664861 0.2798070623641532 0.0612838697387490 255 255 255
-1.4439318846947859 0.3050755027153840 -0.1643414305392543 255 255 255
-0.8999799145959395 0.5887276709982074 0.5170314002880483 255 255 255
-1.0788257358541200 0.5071766288571524 -0.3219921552327643 255 255 255
-0.8284031938795673 0.5965278211930991 -0.0433585564721755 255 255 255
-0.6692968530867345 0.6760493876296914 0.1417853584296032 255 255 255
-0.6600244202419061 0.6827352213300251 0.0333566050827514 255 255 255
-0.1823737555395826 0.9337753530575656 0.7619694377252464 255 255 255
-1.6303686843283867 0.8694943784530778 -0.2401644036662534 255 255 255
