ply
format ascii 1.0
element vertex 684
property double x
property double y
property double z
property uchar red
property uchar green
property uchar blue
end_header
1.0987745072749244 0.2879822045314241 -0.0446628145101122 255 255 255
1.0125759641299847 0.2920598433088773 -0.0458327081730652 255 255 255
1.0564001792081921 0.2954194827367265 -0.0450977042425963 255 255 255
1.0919229501127314 0.2964622291810652 -0.0446966755803223 255 255 255
1.2541038469256169 0.2983782443013601 -0.0427330975910716 255 255 255
1.3004639185192277 0.3007156761939447 -0.0417158145365981 255 255 255
1.0119594024417307 0.3002917472907840 -0.0460505681940120 255 255 255
1.0131475332492919 0.3039764035717436 -0.0458905846624909 255 255 255
1.1416335546921628 0.3071243830144906 -0.0442170240832185 255 255 255
0.9996866304516168 0.3110664702238921 -0.0465524729990854 255 255 255
1.1483126779005799 0.3131441061660598 -0.0442726846383250 255 255 255
1.0920675135330253 0.3178708522910659 -0.0450463042520920 255 255 255
2.2476356644392261 0.1213755257192357 0.5938173106465854 255 255 255
1.0954759561001599 0.3200911177181507 -0.0446742579464776 255 255 255
1.0440186336513404 0.3257393895795772 -0.0453543721681182 255 255 255
1.0922370344912047 0.3273871788530506 -0.0452039042632991 255 255 255
1.0076278716716582 0.3346138427923415 -0.0461147978320184 255 255 255
1.0241266182264246 0.3351567838699565 -0.0459560956779494 255 255 255
1.0440119946192983 0.3354147538845131 -0.0456190099977896 255 255 255
1.0162067994334205 0.3358038168829155 -0.0461148575369474 255 255 255
1.2400830546881598 0.3382251222770223 -0.0427515215309691 255 255 255
1.0199441661863440 0.3380734389154688 -0.0455275615628231 255 255 255
1.0107405982591227 0.3380081147160949 -0.0461963625654094 255 255 255
2.1258926437632226 0.1533574781829810 0.6131896295356825 255 255 255
2.1160666856289501 0.1674918206406766 0.6104641501535060 255 255 255
2.2404898031974163 0.1744102880950997 0.6044878447031223 255 255 255
1.0908857473590414 0.3485902116320965 -0.0450291310697661 255 255 255
1.2243269882995511 0.3497094974361938 -0.0436965513053051 255 255 255
1.0929030974000051 0.3532538088839801 -0.0450998771309548 255 255 255
1.0873873325690182 0.3583972695875968 -0.0445588907961234 255 255 255
1.2946808701894486 0.3602484161594016 -0.0417014496819706 255 255 255
1.1289263322313294 0.3631300989687096 -0.0455246505130971 255 255 255
1.1100520878687463 0.3637136802629133 -0.0454635218314607 255 255 255
2.1628656398157915 0.2091237111229098 0.6182491709518345 255 255 255
1.1089714105039652 0.3680974749347147 -0.0454511845699939 255 255 255
1.0283659896016504 0.3670239162924589 -0.0463356908462984 255 255 255
1.1514519587901544 0.3684705119908633 -0.0444735274169616 255 255 255
1.0991513245826294 0.3699060321289712 -0.0450909375383041 255 255 255
1.1007967861095316 0.3733592983074557 -0.0451066869120090 255 255 255
1.2492922640859696 0.3757776200106447 -0.0436025113882967 255 255 255
1.9867238453830147 0.2206136123129765 0.6229328773160310 255 255 255
1.9318995596664728 0.2248514733734499 0.6274981285660761 255 255 255
1.0983306973021483 0.3829612645999929 -0.0457451813231007 255 255 255
2.0762572451501646 0.2998431439150254 0.6149354701875754 255 255 255
2.1517260201856629 0.3002353129741380 0.6155839361865389 255 255 255
2.1736991255606810 0.3178322876672670 0.6079208491045165 255 255 255
1.9306870934321809 0.3398727081155513 0.6267628791364732 255 255 255
2.4161386856922036 0.4941165945225361 0.4640096069241224 255 255 255
2.4087025067082379 0.4957865743212801 0.5234926187718258 255 255 255
2.4039646166152693 0.5012102358599995 0.5318936469193147 255 255 255
2.4226606297569049 0.5211678002363933 0.4780870594568398 255 255 255
2.3889007489184308 0.5651333338767754 0.5886830771092946 255 255 255
2.4174127038221798 0.5958294543286211 0.4788251165591646 255 255 255
2.3943444778219316 0.6122915713969999 0.6221311461012533 255 255 255
2.4071570536035551 0.6164626195971614 0.4893451975306107 255 255 255
2.4030470117076845 0.6301458708855563 0.5415786418275275 255 255 255
1.2324476848962711 0.0057970681552652 -0.0409883062997755 255 255 255
1.0321329558856125 0.0371864054166234 -0.0449999532150727 255 255 255
1.0343527405520421 0.0552685622257538 -0.0442718595948548 255 255 255
1.1278960488356216 0.1240034009442397 -0.0434875505520296 255 255 255
1.0575566232042490 0.1348768127171454 -0.0448068548829710 255 255 255
0.9647993644504255 0.1417505020890196 -0.0461564655868215 255 255 255
1.1169539335593679 0.1563736230650893 -0.0439642782787660 255 255 255
1.2192036521065299 0.1577158976038868 -0.0424802994121070 255 255 255
1.0876716700677314 0.1756193529689334 -0.0444516250696907 255 255 255
1.2439939137287324 0.1973790061690122 -0.0420831534331685 255 255 255
1.0830587734515895 0.1963018083796794 -0.0448697634973740 255 255 255
1.1747656840096712 0.2162126343906031 -0.0434690869690655 255 255 255
1.2649811122585568 0.2231217591853871 -0.0421125770843445 255 255 255
1.0468251023494166 0.2266837228235807 -0.0449347372996671 255 255 255
1.0949714210102508 0.2305282923888570 -0.0457612607000737 255 255 255
1.1051850552095293 0.2326207844331804 -0.0444195708981191 255 255 255
1.1007887422859219 0.2557302252598808 -0.0446926939691907 255 255 255
1.2671272976100028 0.2781245967531571 -0.0418324890646531 255 255 255
1.2540565201368266 0.2793210047078332 -0.0424729251119666 255 255 255
1.0740071414056729 0.3062563655719970 -0.0456986407307127 255 255 255
1.2867596177553020 0.3094404307867089 -0.0420209423761291 255 255 255
1.2591277306839612 0.3197511024209685 -0.0424384003323716 255 255 255
1.0169652482252054 0.3212691637412366 -0.0458287655764291 255 255 255
1.1537397090690849 0.3240030714395595 -0.0452523287299731 255 255 255
1.1335758539399983 0.3282573770441477 -0.0443044011873095 255 255 255
1.2318889576696344 0.3416959861514719 -0.0431319656317539 255 255 255
1.1517920796434760 0.3438199734855614 -0.0445118166754324 255 255 255
1.1446067611020334 0.3467877039639822 -0.0442401086963109 255 255 255
1.1676843697139780 0.3517328905185755 -0.0436252486969053 255 255 255
1.2840055458256789 0.3592137346641101 -0.0426594668639845 255 255 255
1.0680197779925165 0.3668222611282642 -0.0459542433968444 255 255 255
1.0379677944728574 0.3673975569239074 -0.0461473108622066 255 255 255
1.2236021437059603 0.3773797991256581 -0.0432985941978987 255 255 255
1.1516631221276215 0.3822130062893059 -0.0447973036088278 255 255 255
1.8929715367536470 0.2296628697516772 0.6317629056142380 255 255 255
1.1469816129369708 0.3865640829669204 -0.0447373901309547 255 255 255
1.3166534284682019 0.4185771111091756 -0.0286389654011785 255 255 255
2.4015988446474523 0.6018823233308446 0.5592450920705403 255 255 255
1.2194099860193859 0.0798997987378390 -0.0419608119689090 255 255 255
1.0350706431572654 0.0807894463589598 -0.0445132371668819 255 255 255
1.0344777670759688 0.1556397724398273 -0.0450932756500146 255 255 255
1.0035006200588872 0.1943769690845971 -0.0458257922909571 255 255 255
1.0248958286801582 0.1946958605606852 -0.0463403812392009 255 255 255
1.2613141101735794 0.2185574332420752 -0.0423153456625514 255 255 255
1.0010494955643279 0.2696640068604100 -0.0459278366425937 255 255 255
1.2091357672388370 0.2782848532045508 -0.0435289591482728 255 255 255
1.1794665489870431 0.2878332036266209 -0.0437594704754378 255 255 255
1.0123712146609112 0.2920433955543285 -0.0463724907319438 255 255 255
1.0233089067053420 0.3006058587768035 -0.0455707215459960 255 255 255
1.1284656518844352 0.3589032464721817 -0.0449546758471335 255 255 255
1.2600612118804233 0.3694616906757953 -0.0429832522972928 255 255 255
1.1133529720148916 0.3860835816845065 -0.0449706641007221 255 255 255
1.0526143156822521 0.3864592840061265 -0.0463225855877063 255 255 255
0.9955026011925479 0.0760754786933475 -0.0455563388751523 255 255 255
1.0074666733159328 0.0978153751298316 -0.0442546941651234 255 255 255
1.0469755733372981 0.2266651044220558 -0.0454101095890249 255 255 255
1.0723688506514326 0.2436998366308696 -0.0447149603947272 255 255 255
1.0947629052022769 0.3618205328202313 -0.0445330931966836 255 255 255
1.0869901014497778 0.7142560071156141 0.8934161958755196 255 255 255
1.0733520641922776 -0.0298004580847269 -0.0432558966311030 255 255 255
1.2843732664022252 -0.0283365430441247 -0.0399119233674181 255 255 255
1.1469485613102259 -0.0197460247959831 -0.0427540212162145 255 255 255
1.2491832601509973 -0.0160208308464610 -0.0411032769467294 255 255 255
0.8805294923284361 -0.0111629753709730 -0.0458708209929126 255 255 255
1.2659108832561468 0.0254422444134789 -0.0405261407426287 255 255 255
1.2079625760795083 0.0279896434791600 -0.0420224601774903 255 255 255
1.2949661106114576 0.0361429099695267 -0.0407733942368498 255 255 255
1.0459507849021297 0.0329243885360997 -0.0443743228029705 255 255 255
0.9171924114904425 0.0400591917780884 -0.0455763378813271 255 255 255
1.2178721058500313 0.0452518219973631 -0.0422905745110965 255 255 255
0.8667505583989135 0.0439833440654693 -0.0466019269074049 255 255 255
1.0548997414061825 0.0495319292292126 -0.0443165775952834 255 255 255
0.8969098219338867 0.0465551122107251 -0.0435698303504468 255 255 255
0.9056144478743984 0.0658118995751293 -0.0465046552812423 255 255 255
0.9315824367341765 0.0722418311672104 -0.0460307038411842 255 255 255
1.0974744087707524 0.0768773756536960 -0.0436949891935292 255 255 255
0.8940159217575046 0.0797420351408880 -0.0465219754192985 255 255 255
1.1293670142731795 0.0938450901426471 -0.0434482747443922 255 255 255
2.0263799523721353 -0.3518272318770705 0.6220904775766769 255 255 255
0.8791477838853158 0.0953273992750432 -0.0469258565371143 255 255 255
0.9105571068088602 0.1008686867284985 -0.0465901258882346 255 255 255
1.1784764279692066 0.1075355783231366 -0.0432873679218697 255 255 255
0.9015212195824809 0.1211504662101994 -0.0470668933375009 255 255 255
1.0436983657015018 0.1290602731831660 -0.0451989979693673 255 255 255
1.2552872223119236 0.1346170134916745 -0.0421561684324379 255 255 255
0.8565556129084099 0.1400523802361981 -0.0474683068496993 255 255 255
0.9666449362563001 0.1411709173755181 -0.0459092980651339 255 255 255
0.9458631085968541 0.1442254147169001 -0.0460855894364328 255 255 255
0.8471218677492753 0.1516857826690934 -0.0474627367836576 255 255 255
1.0995507666599296 0.1542704434627744 -0.0441318740848952 255 255 255
0.8935320221047061 0.1544863411385649 -0.0471796998861258 255 255 255
1.1892220619112404 0.1606136438373640 -0.0435195861751663 255 255 255
0.9392516344240670 0.1644414990209997 -0.0464443000892532 255 255 255
0.9791796689004858 0.1645776030512343 -0.0460257044675352 255 255 255
0.9556260723113374 0.1747992002251590 -0.0462285837952965 255 255 255
1.2186307708047461 0.1775834743207334 -0.0427384550362898 255 255 255
1.0212159206643072 0.1808924398348726 -0.0455039649236149 255 255 255
2.1711358373591985 -0.1703604712305937 0.6110957158612735 255 255 255
0.9125920161489673 0.1855642012191775 -0.0470204181146003 255 255 255
1.0828816904607883 0.1966717847414441 -0.0450539783163544 255 255 255
1.2780747120809082 0.1975976807064219 -0.0417730885961829 255 255 255
0.9580684534522259 0.1978022299188650 -0.0462169611966009 255 255 255
0.8691209130314311 0.2042769046525630 -0.0476343739147422 255 255 255
0.8933094123912957 0.2104135268171506 -0.0474027482640329 255 255 255
0.9618216149876456 0.2189144314243741 -0.0460751553899336 255 255 255
0.8694139698711965 0.2215209249316548 -0.0480836914262888 255 255 255
2.2427840518039659 -0.0639341190658058 0.6040190384215975 255 255 255
0.9186153177447558 0.2349873446122790 -0.0471880886111187 255 255 255
1.0904592487183788 0.2368177003484216 -0.0448387789051421 255 255 255
2.2370945244560048 -0.0412590355116826 0.6057991730618681 255 255 255
0.9718724064239507 0.2401378239060503 -0.0465287434044352 255 255 255
0.9277879328422550 0.2401906917011971 -0.0467902447466254 255 255 255
0.9276694191387114 0.2460860820411727 -0.0470023701891319 255 255 255
2.1199986400855284 -0.0208448432937312 0.6124189743338437 255 255 255
0.9450261354897596 0.2528809436784062 -0.0467963028001018 255 255 255
0.9532192638465640 0.2545612672561168 -0.0465966806610116 255 255 255
0.9661495032026082 0.2574084413445084 -0.0461994296237282 255 255 255
0.9843777842790837 0.2751955827149994 -0.0462086376358251 255 255 255
0.9894703841542405 0.2779467842455782 -0.0457697371287686 255 255 255
1.2435728068298326 0.2818453658567861 -0.0428222614914224 255 255 255
0.9802065095325517 0.2783829161027365 -0.0456172722456573 255 255 255
0.9433137359733281 0.2817891178571902 -0.0465851097489037 255 255 255
0.9271919536590814 0.2810307925836747 -0.0469267802690501 255 255 255
0.9507165923057741 0.2868192070413580 -0.0467061403421418 255 255 255
0.9861612357338982 0.2880175735943703 -0.0476155307398375 255 255 255
0.9287429477928053 0.2877549676960162 -0.0469572035648578 255 255 255
0.9468905002736961 0.2893976481715427 -0.0462504970624549 255 255 255
1.2265243024639192 0.2985391879157058 -0.0432633326242171 255 255 255
0.9766239442091784 0.2997755018775241 -0.0466317534810878 255 255 255
2.1702019335040865 0.0840871553597949 0.6100462760623619 255 255 255
0.8799586793808136 0.3041956453600725 -0.0479119119675175 255 255 255
0.9457560325187647 0.3064728150242743 -0.0470469630501379 255 255 255
2.2156807892776476 0.0802820124662833 0.6066035685603364 255 255 255
1.1820970818865502 0.3164505563465377 -0.0442955515207192 255 255 255
1.2601067140222224 0.3135214785433328 -0.0425231592236284 255 255 255
2.0802317820643932 0.1056534917177641 0.6171456659362420 255 255 255
1.0517033984904565 0.3182851879457562 -0.0451197272343364 255 255 255
0.8920988115322149 0.3191283878231752 -0.0481796076073810 255 255 255
0.9606320177953716 0.3221446787721931 -0.0465243736704022 255 255 255
0.9642745096198124 0.3236690375356540 -0.0461814349710266 255 255 255
0.9772563284242336 0.3279543357923018 -0.0467341527078204 255 255 255
1.9634980735098078 0.1263874502478398 0.6245317634852428 255 255 255
0.8999465456727399 0.3279689847907286 -0.0476961010082609 255 255 255
0.9444913922272100 0.3308075486736977 -0.0469979292946476 255 255 255
0.9436765527628042 0.3453737205952664 -0.0472447284353517 255 255 255
0.9515301637273357 0.3460099835617347 -0.0475676494645256 255 255 255
1.1553855229786112 0.3478842883873591 -0.0444191617880624 255 255 255
0.9432337505949251 0.3551138184491069 -0.0472895070053854 255 255 255
1.2733433624161334 0.3603363577353980 -0.0426360273494568 255 255 255
0.9284698805024594 0.3587397882423073 -0.0476234842528238 255 255 255
1.1178415528899384 0.3660359134454203 -0.0447020028824112 255 255 255
2.1000731612812924 0.2098172158560523 0.6148057680553336 255 255 255
2.0897050059908451 0.2106979899326839 0.6182566771342480 255 255 255
0.9052866633538970 0.3705882865133767 -0.0473021260410658 255 255 255
0.9856743425800412 0.3722984796979997 -0.0465823400218159 255 255 255
2.0871193499737650 0.2278074877825524 0.6151028578265656 255 255 255
0.9333002059022022 0.3753984315241132 -0.0474827469419370 255 255 255
0.9436310169928052 0.3762603783581084 -0.0474576618560852 255 255 255
0.9601750143022647 0.3819804450777262 -0.0473930696461378 255 255 255
2.1301504019941153 0.2453918506652074 0.6124498742199471 255 255 255
0.9748214783703673 0.3852489183132419 -0.0469057951262815 255 255 255
1.1005847311036643 0.3859766441457015 -0.0452955857712105 255 255 255
1.0524158186509862 0.3864198667132093 -0.0460607362612917 255 255 255
0.9860493896941378 0.3960569067261952 -0.0483250976109204 255 255 255
2.0079222132531100 0.2936963631304899 0.6242287678977050 255 255 255
2.1478603897909458 0.3603555994568639 0.6083687630753616 255 255 255
2.3933081718790987 0.5107546365783886 0.6040142852192645 255 255 255
2.3875627587183317 0.5901146368741141 0.6121253512013141 255 255 255
2.3854308311011039 0.6156820498734881 0.6412616403504217 255 255 255
2.3879424205547650 0.6748986592785755 0.6341660869626367 255 255 255
0.8759822874600474 -0.0258590326613728 -0.0460746751873984 255 255 255
0.8713045984374865 -0.0311362561176480 -0.0464555418616612 255 255 255
0.8709412734307040 -0.0216452454468785 -0.0462481705205349 255 255 255
1.2091744001201112 0.0209199185087234 -0.0414716760031153 255 255 255
0.9141685417292624 0.0497204907644813 -0.0464348169822397 255 255 255
0.8455786307129605 0.0552778836933809 -0.0478993765889997 255 255 255
1.1718977527350021 0.0572771955856184 -0.0432181743990023 255 255 255
1.2896805248723469 0.0784189991509736 -0.0412783431547989 255 255 255
1.0247860943854477 0.0915468815807307 -0.0448220361427651 255 255 255
0.9034232203655144 0.0872733174878570 -0.0464721246164839 255 255 255
0.9252249685474458 0.0959431002873306 -0.0467609235077422 255 255 255
0.8950578007826816 0.1060479118041842 -0.0481917093521510 255 255 255
0.9318572438880246 0.1154377016613468 -0.0462278376351267 255 255 255
0.9627462357560255 0.1170326371887080 -0.0457976818424237 255 255 255
1.1849737278688657 0.1337764593506267 -0.0431884352829983 255 255 255
0.9365717942796046 0.1378643964884780 -0.0465251217734561 255 255 255
1.2289143825866311 0.1523659793100258 -0.0424949760295159 255 255 255
0.8860265355884733 0.1452840207653106 -0.0472767474882199 255 255 255
0.9483338065594162 0.1644695597539659 -0.0463750154036059 255 255 255
1.1937451473094456 0.1965524774014873 -0.0433208085539207 255 255 255
0.9162592278040869 0.2249453559252492 -0.0473428937252223 255 255 255
1.1342255158595247 0.2270590412779860 -0.0441242395698289 255 255 255
0.9213760812225174 0.2296345727543802 -0.0473318704745120 255 255 255
0.9685178398093591 0.2334004141589175 -0.0463915855136648 255 255 255
1.1918908799647066 0.2374451180805551 -0.0432095559669605 255 255 255
1.2697811105681747 0.2388557197671428 -0.0420086030851543 255 255 255
1.1751473339083587 0.2551409929066666 -0.0437086498452517 255 255 255
0.9350244984673530 0.2600440193747051 -0.0471742635184675 255 255 255
1.0511687411754946 0.2646694177749712 -0.0454649108153562 255 255 255
0.9435434693835614 0.2637354531136662 -0.0463826773814731 255 255 255
0.9475058889010302 0.2771561698203294 -0.0462665532965447 255 255 255
0.9763475073861955 0.2839478484812706 -0.0464621250497197 255 255 255
0.9916316076474571 0.2953896076893677 -0.0462960241190307 255 255 255
1.2339461496986301 0.3092118936466839 -0.0430748341333869 255 255 255
1.2599396922379311 0.3134013313723501 -0.0426616059866984 255 255 255
0.8925170972448043 0.3097586592126201 -0.0475918904764603 255 255 255
1.0479448175584953 0.3406589745684229 -0.0456642081061281 255 255 255
1.1792436706038931 0.3430887445808261 -0.0442777566192851 255 255 255
0.9722587363995184 0.3466437871009346 -0.0466880774614382 255 255 255
1.0287119683237751 0.3476071144136654 -0.0460439304192631 255 255 255
1.2152035712621083 0.3625478042669578 -0.0439286957138452 255 255 255
1.1754544585205813 0.3688714447771448 -0.0445654006811473 255 255 255
1.1516798781517088 0.3822323634745863 -0.0448375116767055 255 255 255
0.8584165535121242 0.2704985407217619 0.9506278173924798 255 255 255
1.1573489121898224 0.0419569554542195 -0.0427422297548390 255 255 255
0.9445745997521638 0.1544175327239307 -0.0463685455384524 255 255 255
0.8704596565399605 0.1556696566272384 -0.0473391327494195 255 255 255
1.2133643457079639 0.1891609665600882 -0.0421136472510852 255 255 255
1.1599375508165481 0.1958981575485534 -0.0431938751531646 255 255 255
1.1264911368312409 0.1965666115868602 -0.0441993589522587 255 255 255
1.1915302010144524 0.2373676307913548 -0.0429020260033370 255 255 255
0.9042715053814998 0.2402124349665833 -0.0471321449746291 255 255 255
0.9479969991907460 0.2455259570828521 -0.0469437303479966 255 255 255
0.9310651801119323 0.2548218710860444 -0.0472790539781727 255 255 255
0.9350604150351387 0.2601543464512881 -0.0472728363797312 255 255 255
0.9292695359661182 0.2633507973177051 -0.0472572351711462 255 255 255
1.1908281582127163 0.2663452491370428 -0.0436882572951185 255 255 255
0.8920597498601168 0.2618394239955304 -0.0476571978269114 255 255 255
0.9428937699618847 0.2740665312440096 -0.0468783145610388 255 255 255
1.0754849993263083 0.2878367125130881 -0.0444863346450770 255 255 255
1.1326822736838653 0.3172286120062973 -0.0440502811183361 255 255 255
0.9749972810473100 0.3761068853437046 -0.0474246980455142 255 255 255
0.9330218479063914 0.3860387272237971 -0.0474023763129274 255 255 255
0.9424188899239043 0.1951816207682875 -0.0465397949742989 255 255 255
1.0850909078292137 0.1847986027091141 -0.0442806205328665 255 255 255
0.9112428870005924 0.2444877279453324 -0.0471625847942861 255 255 255
0.9460841455505185 0.2946464093210579 -0.0468925544224161 255 255 255
1.0740119824932854 0.3061449626363960 -0.0453515881003272 255 255 255
0.8969537919077961 0.3156244768825252 -0.0475824258657251 255 255 255
0.9588827439838354 0.3660099065727751 -0.0468776739897336 255 255 255
1.3113866852358296 0.6520389866642107 1.2343593527548329 255 255 255
1.0735021982829074 -0.0386526337304361 -0.0434719042987030 255 255 255
1.2940926324748971 0.0009841395106647 -0.0397168967411705 255 255 255
1.1303970989873560 0.0061982452079592 -0.0433341886079806 255 255 255
0.9861276347873726 0.0316764523272219 -0.0451827270879468 255 255 255
0.8797361008804659 0.0483057731546198 -0.0470820776463573 255 255 255
1.1715382062265411 0.0512925149149266 -0.0427149214283506 255 255 255
1.1373299058679796 0.0523220048314206 -0.0429503302466995 255 255 255
1.1765782249126333 0.0601199662626392 -0.0423448358001219 255 255 255
1.1491901073807842 0.0972674074755790 -0.0434462839944612 255 255 255
1.1384098574387287 0.1103068811889740 -0.0431793203339188 255 255 255
1.1892022777835221 0.1271402293341017 -0.0426088159999800 255 255 255
0.9183462014872903 0.1319904831651084 -0.0472055835704663 255 255 255
1.0263244072712818 0.1350581221808975 -0.0451834553489698 255 255 255
1.1030744641831995 0.1493757403779606 -0.0441127730303868 255 255 255
0.8962203591080575 0.2053807746279441 -0.0473655165890197 255 255 255
0.8484933642326463 0.2093682922769194 -0.0477528014855660 255 255 255
0.8571526617539780 0.2098506231080824 -0.0477834791272465 255 255 255
0.9576316013190153 0.2182524265675558 -0.0461290393763423 255 255 255
0.8430119978369799 0.2389328041432627 -0.0485067702352110 255 255 255
0.8390436111088659 0.2617729603860242 -0.0481004646709895 255 255 255
0.8725888660840641 0.2668482118378621 -0.0471884446925224 255 255 255
0.9637818375903073 0.2709725895932826 -0.0462635019889470 255 255 255
1.0146728744661542 0.2734755189799483 -0.0451875182832286 255 255 255
1.0489866130287326 0.2902559193838150 -0.0449969400574073 255 255 255
1.9902568763927810 0.0495436803812233 0.6231996263238635 255 255 255
0.8646356394431330 0.3050277094973184 -0.0484407731102448 255 255 255
1.2871849421127040 0.3095730048262440 -0.0421282533519553 255 255 255
2.0591498356559157 0.1068172837840571 0.6174151077933345 255 255 255
0.8481817194442680 0.3176378458156019 -0.0487299196366635 255 255 255
1.9574114468102213 0.1194314358894837 0.6254598143915722 255 255 255
1.0033415249852353 0.3318320060092877 -0.0467320476984685 255 255 255
0.9793403487996606 0.3319477946975187 -0.0460918426398413 255 255 255
2.1913138132858219 0.1673165755747874 0.6081675937019071 255 255 255
1.9051632279446427 0.1699044378786434 0.6290594672355896 255 255 255
0.8833430539160618 0.3509007248609208 -0.0481390006806208 255 255 255
0.8487995315896019 0.3534953371651984 -0.0485292153189874 255 255 255
0.9029123979189727 0.3556546296998896 -0.0477521285140264 255 255 255
1.2759652532624290 0.3630549386900712 -0.0414207068211256 255 255 255
0.9137060772220034 0.3635617594224695 -0.0474214945915858 255 255 255
2.0685546714845926 0.2103317380939617 0.6161578787902187 255 255 255
1.9623102310982450 0.2162598425094928 0.6244214367534688 255 255 255
1.9050351060589765 0.2192003694224001 0.6286353248613494 255 255 255
1.9173648924638051 0.2197593232369530 0.6286542510069086 255 255 255
1.1003823851900432 0.3927777051012429 -0.0442432734739295 255 255 255
1.0870887758932815 0.4011961571127879 -0.0461185044417827 255 255 255
0.9901160515730538 0.4482106251264333 1.2462796327182133 255 255 255
1.1002213464293931 0.7126252023063953 0.7531910290086405 255 255 255
1.1013024024255709 0.7172075321336636 0.7784285077164526 255 255 255
1.0937264601214136 0.7118388450081603 0.4080362411715694 255 255 255
0.8489770487580071 0.0089516931267628 -0.0467359868633377 255 255 255
1.2490115378789097 0.0463203351967916 -0.0414947975857611 255 255 255
1.2395933533263022 0.0631124248931171 -0.0416343021349404 255 255 255
0.9320799490085305 0.1153678485436577 -0.0462428226438888 255 255 255
0.8740946614848609 0.1276895771285012 -0.0470857464437615 255 255 255
1.1893064182378121 0.1611237160482537 -0.0431976189076109 255 255 255
1.1015249586535922 0.1659049133301059 -0.0444253568563098 255 255 255
1.2650247895347866 0.1725530130639672 -0.0421738979123973 255 255 255
1.2649342299867101 0.1923116774481257 -0.0421908162991538 255 255 255
1.2632635903086520 0.2510831241981331 -0.0421439762654341 255 255 255
0.8798493418926859 0.2610520221424660 -0.0478742414813860 255 255 255
1.1060048459414202 0.2710692794892405 -0.0452008092646897 255 255 255
0.9474951930462288 0.2771913916692096 -0.0459400261973548 255 255 255
0.8846514119525025 0.2912494098619267 -0.0480212898346193 255 255 255
0.8927697560583989 0.3084085771911339 -0.0473609792941021 255 255 255
0.9280178991761036 0.3264871919219625 -0.0476487413460802 255 255 255
0.8938582297316862 0.3350130887401656 -0.0487030176965438 255 255 255
1.2814337076249944 0.3487205845225929 -0.0424902413725423 255 255 255
1.1286800653909235 0.3587455368500159 -0.0446916196426437 255 255 255
1.1030313667943357 0.3809881737569972 -0.0455657860355279 255 255 255
1.1135257098266913 0.3861237575636056 -0.0452139578620190 255 255 255
1.1228771780643192 0.3880662037108221 -0.0451956452851531 255 255 255
0.8825462162729565 0.3934070051368356 -0.0477997547662490 255 255 255
0.8873195682308928 0.3974973912871658 -0.0475506644293135 255 255 255
1.0486689914209153 0.0105939844010834 -0.0445221092504582 255 255 255
1.2490178892812369 0.0463338370178432 -0.0415193528345041 255 255 255
0.8508362129806315 0.0665831754555914 -0.0473345146119124 255 255 255
0.9050729472492733 0.0805444379841749 -0.0462627118929433 255 255 255
1.2945514661055302 0.1420150132790270 -0.0417065352077775 255 255 255
1.2198013655071613 0.1881211736005285 -0.0428859518629966 255 255 255
0.8448740413869267 0.1929197504274658 -0.0478739926556031 255 255 255
1.2779203947903668 0.1979062988195488 -0.0421012281659392 255 255 255
1.2756329190282214 0.2619890946733354 -0.0412220482304404 255 255 255
0.9849058662119066 0.2748792114060845 -0.0463162220715615 255 255 255
1.1853274630850541 0.2843982899209843 -0.0434671492183538 255 255 255
1.1407278719536507 0.2935729998831530 -0.0440079313170718 255 255 255
0.9711489540219187 0.3002667184827339 -0.0462510493475872 255 255 255
0.9770534508284634 0.3277414948731320 -0.0466257490551381 255 255 255
0.8695181370256755 0.3445517983196851 -0.0483023992823490 255 255 255
1.1773308671132938 0.3601748678095782 -0.0453235458698469 255 255 255
1.1764758197864276 0.3857373778729827 -0.0441430465384465 255 255 255
1.1229201561206295 0.3880020870763128 -0.0451230589041192 255 255 255
0.9016693159614888 0.0354545399678652 -0.0463816281856376 255 255 255
1.2686639859451692 0.1971331915671932 -0.0416859423347442 255 255 255
1.0727303286747900 0.2147094217942564 -0.0448901834490765 255 255 255
1.2651768369645935 0.2234096470306342 -0.0420013893413675 255 255 255
1.1407794798472601 0.2744480316962317 -0.0441733632525114 255 255 255
0.8979977445274336 0.2850649597144432 -0.0477208452886586 255 255 255
0.9591751116783449 0.2864485015697520 -0.0467686953757287 255 255 255
1.1825119545991385 0.3000866893868284 -0.0437610394187615 255 255 255
0.8855503053709034 0.3212056752726442 -0.0478229844592932 255 255 255
1.0520477203241723 0.3559965543665574 -0.0452368658064222 255 255 255
1.1622827446583006 0.6618563319184343 1.2293336433638054 255 255 255
1.2448365420904524 -0.0251490312414955 -0.0436710030670993 255 255 255
0.9191710271136533 -0.0221834734769608 -0.0465881426911940 255 255 255
1.3172461361056182 -0.0068549177997772 -0.0403690107289529 255 255 255
1.1274067081164321 0.0019018203504518 -0.0432513977229282 255 255 255
0.8678599051638992 0.0158225413929300 -0.0463614911103280 255 255 255
0.9666747592063105 0.0550582421451942 -0.0454902843523339 255 255 255
0.9229215679645170 0.1005463068742190 -0.0466857084266546 255 255 255
1.2263604087397133 0.1049817422193680 -0.0422892227340221 255 255 255
1.0467874937408115 0.1118081814538827 -0.0451459927427097 255 255 255
1.2228307732436527 0.1297542698683414 -0.0424517533945665 255 255 255
0.9944590741226345 0.1390313090366671 -0.0446091908588996 255 255 255
1.1077141983341692 0.1482597861183366 -0.0439134528769111 255 255 255
1.2557318185988118 0.1579274771956012 -0.0416147379605905 255 255 255
0.9098499500386287 0.1584979943584022 -0.0467491961209495 255 255 255
1.3037292948192452 0.1686498900052662 -0.0405842604470052 255 255 255
1.2934493369704796 0.1804133213360353 -0.0408162583163918 255 255 255
1.2414207057613345 0.1807726368747244 -0.0415844127996294 255 255 255
1.2767960480619394 0.1882579588322439 -0.0416205220225443 255 255 255
1.1524703174688344 0.1894680825349601 -0.0434790946842520 255 255 255
1.1356795326641795 0.1919943854961711 -0.0439413656637833 255 255 255
0.8691876846402389 0.2043590349722015 -0.0476868733759285 255 255 255
0.8531455185036251 0.2138645788050897 -0.0476822577895946 255 255 255
0.9649688145947528 0.2214855174785444 -0.0457890404914169 255 255 255
0.8674528703939954 0.2271906243848072 -0.0476039740832570 255 255 255
1.1454700870427981 0.2301343022522185 -0.0435840547989055 255 255 255
0.8430180439124783 0.2389129861552963 -0.0485695605980601 255 255 255
1.0109412554029362 0.2468409426934436 -0.0456289638221444 255 255 255
0.8418644665658241 0.2653598487676114 -0.0484431286941609 255 255 255
1.1351566424340742 0.2717362111184250 -0.0447752636569729 255 255 255
0.8619894868979410 0.2733411282305866 -0.0483458293087939 255 255 255
0.9954275694991015 0.2758453056789700 -0.0452578295995671 255 255 255
0.8946452284393031 0.2775021557834765 -0.0478755541790070 255 255 255
0.8981198397153913 0.2802854385250586 -0.0476465169244422 255 255 255
0.9326239285002542 0.2838640229639189 -0.0467815835146617 255 255 255
1.2567420484929408 0.2874510106478394 -0.0427584614201724 255 255 255
1.2346222040042463 0.2933432258971518 -0.0426930180020477 255 255 255
1.9088912775441642 0.0502395551202284 0.6315193526618046 255 255 255
1.1437494897855567 0.2968616770569714 -0.0437175580250955 255 255 255
1.2734235523816111 0.3011665880959271 -0.0424209441406607 255 255 255
1.0587953050957535 0.3039817364441807 -0.0452298854916101 255 255 255
1.0095419472969995 0.3099448495874708 -0.0452021610982451 255 255 255
1.2599587144838629 0.3135738317269870 -0.0426294015926902 255 255 255
1.2896471077188845 0.3144594558659035 -0.0419860710964413 255 255 255
0.8975809967591397 0.3158276196920656 -0.0481593700358699 255 255 255
1.2994552770832417 0.3291065753923595 -0.0421181415430585 255 255 255
1.0619034724314234 0.3460218903798342 -0.0462364457187956 255 255 255
1.2041051647733294 0.3631908989546480 -0.0430238537429029 255 255 255
1.0382433992260560 0.3676442286077245 -0.0464032769446927 255 255 255
2.0996273896199806 0.2097239874674766 0.6146000856596885 255 255 255
1.8839477390429842 0.2314176663537011 0.7277336414104596 255 255 255
0.8628176535081923 0.3976316278174463 -0.0484911048347507 255 255 255
2.0861346642213885 0.2763832708958365 0.6148774604360980 255 255 255
1.0956377432650244 0.7072427281470234 0.6597709900867881 255 255 255
1.1167025265951009 -0.0292683928526731 -0.0417296778536480 255 255 255
1.0133792584329442 -0.0182521144521494 -0.0446836096868020 255 255 255
0.8668905651448302 0.0432470145535255 -0.0466046888400600 255 255 255
1.2970502460102686 0.0547517469906005 -0.0411120849683222 255 255 255
1.1345304481193426 0.0819813428053870 -0.0433399150011140 255 255 255
1.1080384088388289 0.1566181656532232 -0.0438838597363715 255 255 255
1.1098329542851162 0.1676224092572094 -0.0443032082261816 255 255 255
1.2902825129174378 0.1709052116443335 -0.0414571427023844 255 255 255
1.0431177653785462 0.1710488326042754 -0.0454710916668069 255 255 255
1.0349084930685248 0.1800407158003834 -0.0460490276723386 255 255 255
0.9130346952826883 0.1853315240553179 -0.0470419261427238 255 255 255
0.9550250854793809 0.1942797810900023 -0.0467798733795330 255 255 255
0.9154022470535816 0.1946833507176473 -0.0465927876131875 255 255 255
0.9541287632489018 0.2147883788704825 -0.0464968521142288 255 255 255
1.1875286286566749 0.2321247447139859 -0.0436604879976993 255 255 255
1.1101966679883895 0.2367942433696285 -0.0441182028493925 255 255 255
1.2015568012081617 0.2473375209744092 -0.0433669585122568 255 255 255
1.1410538044859970 0.2568302473526183 -0.0439590026078312 255 255 255
1.0601074151018761 0.2613588101682387 -0.0452684674369854 255 255 255
1.0420559821886084 0.2658454230270645 -0.0457128640108030 255 255 255
1.1094151091682753 0.2757174292063549 -0.0446667340635686 255 255 255
0.9460525356923086 0.2893494807183932 -0.0467626243876267 255 255 255
1.1432144657749852 0.3143066187750700 -0.0437454071910199 255 255 255
1.0193687487397822 0.3277652595616862 -0.0468596156026224 255 255 255
1.2524893885150585 0.3298118520903919 -0.0427725080765038 255 255 255
1.1354896604795952 0.3333995330728999 -0.0449471861119548 255 255 255
1.1554033768543952 0.3379232675558231 -0.0440371936156403 255 255 255
1.1152691977671143 0.3397682463480035 -0.0453192026318086 255 255 255
1.0704977411956411 0.3473019563810520 -0.0458695438962406 255 255 255
1.0013708508719081 0.3564911239440685 -0.0463744276125519 255 255 255
1.2383324927479014 0.3790122719841750 -0.0429646151852534 255 255 255
1.0790945287406852 0.3817527146885964 -0.0459803141046837 255 255 255
1.1565359244461002 0.3863997073818631 -0.0436797362427295 255 255 255
0.8492520999360131 0.4008562425468671 0.1262679683018817 255 255 255
0.9084300784710537 0.1245780975152417 -0.0466836671055493 255 255 255
0.9423280979853556 0.1318762216870500 -0.0460007456373520 255 255 255
0.8588685223338794 0.1348228147981150 -0.0475081519082963 255 255 255
1.2222203255231137 0.1389969289366104 -0.0422248427602017 255 255 255
1.2452198120279245 0.1484437640836846 -0.0420467531784139 255 255 255
0.9813029285904316 0.1575579063753471 -0.0458435557303618 255 255 255
1.2987722836180164 0.2326255918748545 -0.0406750779494489 255 255 255
0.8382611007962932 0.2619453728164709 -0.0485157656559672 255 255 255
0.8861855726912382 0.3114251906919114 -0.0490111851870974 255 255 255
1.0489826894924066 0.3230600556064636 -0.0460030001467047 255 255 255
0.8833104800659148 0.3502488246128768 -0.0481030589296250 255 255 255
1.2225482054670949 0.3646254527603389 -0.0433059243454466 255 255 255
1.1753649136386288 0.3687333117472837 -0.0441386979259013 255 255 255
0.9803382368063751 0.3712225944039389 -0.0473152704370570 255 255 255
0.9947784811742033 0.1596633162216601 -0.0454352659943655 255 255 255
1.2131642740136652 0.1897556613049944 -0.0422227428580777 255 255 255
1.2721878153396480 0.2159113597452356 -0.0423397113265160 255 255 255
0.9041914231718237 0.2805056106937547 -0.0477886898267470 255 255 255
1.2866906727949763 0.3091210746098285 -0.0421289885498624 255 255 255
1.9132255039143509 0.4259036743451468 1.1517775436798701 255 255 255
1.1910195600422600 -0.0479697718249659 -0.0424467282695282 255 255 255
1.2375997309275304 -0.0321501438304299 -0.0413840236293872 255 255 255
0.9760860915711609 -0.0031088035157114 -0.0451707251453528 255 255 255
1.0421258252620720 0.0028996993085562 -0.0442963571363402 255 255 255
1.3046309195827233 0.0251020235256334 -0.0400785811071529 255 255 255
1.1471548683209849 0.0246804953011259 -0.0425873224545414 255 255 255
1.2144370112273273 0.0351810543893256 -0.0414364858757779 255 255 255
1.2455492224008613 0.0813064047272882 -0.0413129010950781 255 255 255
0.8669333782120310 0.0821881012563876 -0.0465686254410578 255 255 255
0.8608533914474463 0.0966395707536578 -0.0474258900814424 255 255 255
0.9013373348725585 0.1210158817790453 -0.0468786246435895 255 255 255
1.1279182794166727 0.1242993164107633 -0.0432792757397120 255 255 255
1.2633227307989543 0.1275186749814985 -0.0416258759031436 255 255 255
1.2575582639299840 0.1399580657882851 -0.0418479259498135 255 255 255
1.1782996969146122 0.1570211462103539 -0.0430499956364940 255 255 255
1.2111364521367491 0.1622714615656642 -0.0420402690208030 255 255 255
1.1123956154203472 0.1717126384030738 -0.0437532466188761 255 255 255
1.0564213189492220 0.1876007013243592 -0.0445662253904169 255 255 255
1.1329656739743843 0.1962216939006396 -0.0436142132477748 255 255 255
1.1781455762830184 0.2031876893074356 -0.0430530085553165 255 255 255
1.1813086521875182 0.2063608126068870 -0.0435754888694975 255 255 255
1.2436526757125570 0.2218493370739267 -0.0425432461134285 255 255 255
0.8301079140162879 0.2611397188202464 -0.0468860405731195 255 255 255
1.1364800532022834 0.2967217789362517 -0.0440848444574868 255 255 255
0.8712553060059358 0.3027657270930598 -0.0477812162773368 255 255 255
1.2019425612150627 0.3137441056681283 -0.0432030912692909 255 255 255
1.1095986156342077 0.3158431917682931 -0.0442799801946343 255 255 255
1.1204260904504171 0.3189969928162526 -0.0439294644756565 255 255 255
2.1694574176416968 0.1323075328317695 0.6103742556184848 255 255 255
1.1558998143491681 0.3378762520004160 -0.0441309207033713 255 255 255
1.1950376204630251 0.3498813731031656 -0.0435726220154828 255 255 255
2.0023735224691563 0.1875870764494678 0.6304994152237668 255 255 255
0.8589530256575625 0.3620321798400302 -0.0485539555770696 255 255 255
1.0073999410045111 0.3673205863615717 -0.0465778536207930 255 255 255
0.8545638990104284 0.3717416659471654 -0.0479141268568425 255 255 255
2.1240361506781227 0.2348496438036722 0.6128294394113176 255 255 255
0.9944705956765805 0.4628550640723326 1.2238569478247454 255 255 255
1.1193300179667234 0.7119577776845718 0.8655877775358150 255 255 255
1.2377284815014800 -0.0323114735185386 -0.0412763548683134 255 255 255
1.1472667894807627 0.0003602139030869 -0.0423522547052109 255 255 255
1.0891024407998806 0.0055162786136798 -0.0433626946650243 255 255 255
1.0587826905942748 0.0103347258749109 -0.0436089749903321 255 255 255
1.1351439070487164 0.0220774282535263 -0.0431671785998589 255 255 255
0.9063713834701841 0.0595175379807178 -0.0464558004403610 255 255 255
1.1648149806511954 0.1041748324750715 -0.0425626576596403 255 255 255
0.8760610422770322 0.1160697501886481 -0.0468663615170484 255 255 255
1.0343113182848327 0.1273366091634438 -0.0448518619050082 255 255 255
0.9071110099086849 0.1296067227162886 -0.0462837853711380 255 255 255
1.0268347131243065 0.1490514103589812 -0.0452092634814248 255 255 255
1.2946338692816892 0.1576853773522784 -0.0413351900110863 255 255 255
0.8848911252048293 0.1776188340037093 -0.0472875789217460 255 255 255
0.9352629704272341 0.1807431140589197 -0.0469508657035820 255 255 255
1.0967060131309987 0.1882675716674442 -0.0443912198300609 255 255 255
1.1938705442755881 0.1965304502315970 -0.0431885029333410 255 255 255
1.2687930563974836 0.1974884346527661 -0.0420760127498063 255 255 255
1.0511128216303773 0.1985706992760898 -0.0448379834855296 255 255 255
1.0186079817751503 0.1995956817361879 -0.0458166440004257 255 255 255
1.0545135340305567 0.2054242242326041 -0.0454326440034905 255 255 255
1.0593761985830490 0.2204568458397217 -0.0454716517686733 255 255 255
1.1346777014649165 0.2481928933759728 -0.0442136666518063 255 255 255
1.0719621167689404 0.2671176192471501 -0.0449548069014303 255 255 255
1.1315648880332709 0.2881065581778036 -0.0441216823554154 255 255 255
0.9712198136335236 0.3002355101198482 -0.0463088788370225 255 255 255
0.9190769752255463 0.3105287994247260 -0.0473823762762426 255 255 255
0.9075649984532800 0.3158392177132768 -0.0481164662041804 255 255 255
1.2589468515424311 0.3199182436016974 -0.0428375456699577 255 255 255
1.0492041890690280 0.3229671870550720 -0.0457288236739917 255 255 255
0.8846148908168505 0.3279944983112255 -0.0482759710570893 255 255 255
1.1446780880423564 0.3469248587529912 -0.0447886288725257 255 255 255
1.0439765869965165 0.3468807068498552 -0.0461885744418113 255 255 255
0.9589301460757079 0.3657996102037883 -0.0468971561105402 255 255 255
0.8325201672691076 0.3655366912004370 -0.0493473086653111 255 255 255
1.0524744551347411 0.3862772240294625 -0.0460341436441519 255 255 255
1.1100164621150923 0.3906233519102494 -0.0444363727467185 255 255 255
1.1020925081741251 0.0021444891756262 -0.0436481189040832 255 255 255
1.2617634616666762 0.0220031092285460 -0.0409730507294617 255 255 255
1.0553694549479640 0.1875727965388974 -0.0448501508128665 255 255 255
1.2688122129500488 0.1974535469047964 -0.0419969532534115 255 255 255
0.8526024417768477 0.2135890371333881 -0.0479332532858561 255 255 255
0.8980109550272393 0.2440676401446140 -0.0469512538645471 255 255 255
1.0040243996797260 0.2600746006895197 -0.0461291594975393 255 255 255
1.0132244922543596 0.3040196123904936 -0.0459905097653900 255 255 255
1.9967529490879201 0.1694529549553963 0.6199495964164043 255 255 255
1.3034502692862331 0.3598546757079655 -0.0421639221248924 255 255 255
1.2822393959579399 0.3645261107047311 -0.0427164242930331 255 255 255
0.9526141572657663 0.3851693868064769 -0.0473885478050420 255 255 255
0.9372979205756666 0.3885799922980113 -0.0467078078426972 255 255 255
0.8754439178250526 0.3947104849941230 -0.0482866210132435 255 255 255
1.1836750982830122 0.3983168861746886 -0.0445188785971791 255 255 255
1.2516197899371946 0.2855707391785636 -0.0424633398186494 255 255 255
1.2148821972512347 0.3630415707232097 -0.0439707056978254 255 255 255
1.1916057402437188 0.6423166341589387 1.2375077063989899 255 255 255
1.1062997828513381 0.7095574597585124 0.3017996229180930 255 255 255
1.1911528664029616 -0.0484639618407723 -0.0421753753120520 255 255 255
1.1473294402535625 0.0428513431345250 -0.0430698007397945 255 255 255
0.8508854012166475 0.0663487815477069 -0.0472258132734410 255 255 255
1.1899472992166071 0.0859389583244878 -0.0428064887783126 255 255 255
2.1395024457634975 -0.3360814888533028 0.6139748138746910 255 255 255
1.1707867012933315 0.1063531408276903 -0.0425324533738483 255 255 255
1.2905610634258764 0.1336496479028391 -0.0416292780419028 255 255 255
1.0247409072488649 0.1419874792355071 -0.0448788293185851 255 255 255
0.8858671249554919 0.1456435608179483 -0.0474863672052823 255 255 255
0.9792101311959751 0.1493692059661247 -0.0460601491717354 255 255 255
1.2442947837124168 0.1615883416169090 -0.0419274024264507 255 255 255
1.0278960109898327 0.1714757063979973 -0.0451128750343228 255 255 255
1.2922640851799496 0.1774293405420106 -0.0424861515133834 255 255 255
1.0876705533109097 0.1755839699346697 -0.0441560553265319 255 255 255
1.1883071819649005 0.1800239762680214 -0.0430975836301926 255 255 255
1.3042512430344200 0.1872419650136399 -0.0413952334823353 255 255 255
0.8969393226237999 0.1861572719742908 -0.0473853313479182 255 255 255
1.1521032220206817 0.1897969908737775 -0.0441019905905833 255 255 255
1.9063212578819346 -0.2957674761105444 0.9827293646516182 255 255 255
0.8737931920633245 0.2414965455253186 -0.0476270232363110 255 255 255
0.8724448679131364 0.2469939810609504 -0.0467729126803218 255 255 255
1.2631353940171479 0.2513146884018722 -0.0425522415437420 255 255 255
1.0085199599191572 0.2536216627640974 -0.0458028154590535 255 255 255
1.1752461147828361 0.2554730055519081 -0.0439398399176874 255 255 255
0.9536084041033361 0.2543420190517629 -0.0461318295776287 255 255 255
1.0272181642553453 0.2594687336171333 -0.0453068295324321 255 255 255
0.8438382880698923 0.2782383222585517 -0.0484158496893354 255 255 255
0.8615573144525255 0.3157855315431650 -0.0478986456924270 255 255 255
1.0003700145247416 0.3280919776321035 -0.0469949002239449 255 255 255
1.1288877573704506 0.3361656275759684 -0.0446005426880269 255 255 255
1.0908535387456770 0.3486672486337090 -0.0450356044194944 255 255 255
2.0980916217052670 0.2691999722977394 0.6143212515592209 255 255 255
1.9690870349649889 0.3659291299153132 0.6523379039133803 255 255 255
0.9446435064755978 0.4659427127710855 1.2338872670082135 255 255 255
1.1845646367430724 -0.0027650216980906 -0.0422602460026180 255 255 255
0.9191347561759062 0.0088789834868014 -0.0457555191010025 255 255 255
0.9600507571897630 0.1648498829631273 -0.0464885972782549 255 255 255
1.1015298990311717 0.1657788787240957 -0.0441253110361745 255 255 255
1.2617741010648853 0.1679749079789392 -0.0420901089187318 255 255 255
1.0163057024828834 0.1785505669594608 -0.0454003726972223 255 255 255
0.9529775494135995 0.1837726380511783 -0.0467553962464260 255 255 255
1.2478051534772252 0.2015946672369378 -0.0413583723075455 255 255 255
1.2292766163768460 0.2324749884169783 -0.0426112724581227 255 255 255
1.2733955627938514 0.2431958530535039 -0.0423266515352769 255 255 255
0.9967916349869529 0.2564376397649900 -0.0461633853435575 255 255 255
1.1228041365544930 0.2821520182187456 -0.0442932980576440 255 255 255
1.1794974760160311 0.2878743314696811 -0.0437392561203962 255 255 255
0.9593122750172460 0.2868137879317715 -0.0467996722494788 255 255 255
0.9285864435667919 0.2875766158044244 -0.0470659670251865 255 255 255
0.9160017764855720 0.2908615120054573 -0.0475571110499925 255 255 255
0.8924438222533665 0.2978209457193576 -0.0471421435909174 255 255 255
1.1815064859242916 0.3016035016195344 -0.0436386016610175 255 255 255
1.1771261898183176 0.3063695148374752 -0.0435701159445800 255 255 255
0.9768753237186649 0.3278040843482366 -0.0468121277060003 255 255 255
1.1194512140395005 0.3439312983414329 -0.0449978136071816 255 255 255
1.2370860457208135 0.3481261901462878 -0.0420864695164163 255 255 255
1.2841606022100001 0.3534578598216269 -0.0415909360734723 255 255 255
2.2265298027032387 0.1529943873054975 0.6048975990211414 255 255 255
1.0408719338874752 0.3612410835012062 -0.0466780980258932 255 255 255
1.3075298076811634 0.3832824415247806 -0.0414980113682049 255 255 255
1.0485867434996630 0.0102821929250378 -0.0440181129028034 255 255 255
1.0028684966100130 0.1397944576939800 -0.0449818686161771 255 255 255
1.0031413087528109 0.2231107977720532 -0.0463459276067821 255 255 255
1.0981181595418945 0.2240079455948818 -0.0444400366846036 255 255 255
1.1650563831507821 0.3400035197159688 -0.0443620565943590 255 255 255
0.9222789494585638 0.3607556505635342 -0.0476026605210895 255 255 255
1.1227769639954270 0.3879966128216927 -0.0454288452912515 255 255 255
1.2865615585743448 0.3900126710733538 -0.0423338519865446 255 255 255
1.1100369269510146 0.3906309310069288 -0.0443885867067548 255 255 255
0.9994581959031177 0.1036266502853223 -0.0444622355325097 255 255 255
1.0237877788723133 0.1942481757080421 -0.0456364098091888 255 255 255
1.0946498357281409 0.2303133382027724 -0.0449823679654195 255 255 255
0.8793570832241635 0.2446065705071277 -0.0476633479564522 255 255 255
0.9591328417974918 0.2867326730710054 -0.0472863084946535 255 255 255
0.9766106341330512 0.3275144090332863 -0.0471363191627383 255 255 255
1.3004007774088358 0.3879396633986021 -0.0423396574223744 255 255 255
1.0706303207305465 0.5883737393998894 1.2332867082401933 255 255 255
1.1182773891100424 0.6559927966913812 1.2358411313494067 255 255 255
1.2438621454632219 -0.0477952025150152 -0.0411813701787835 255 255 255
0.8709487711324186 0.0068332160108016 -0.0465260771911780 255 255 255
1.2705553051729979 0.0128757825860113 -0.0412527569910424 255 255 255
0.9982591998509096 0.0162490720639399 -0.0445326501522665 255 255 255
0.9825578284241376 0.0461912446834902 -0.0453299165150991 255 255 255
0.9143510032074218 0.0859473088864604 -0.0468941249213835 255 255 255
0.9837361690339330 0.1217768915160411 -0.0458149661816725 255 255 255
