ply
format ascii 1.0
element vertex 686
property double x
property double y
property double z
property uchar red
property uchar green
property uchar blue
end_header
-0.0829938357235819 0.3827531425037218 0.8292817593903727 255 255 255
-0.1216483641206899 0.3741008779070329 0.8501951720071834 255 255 255
-0.1276671435932944 0.3733019836840454 0.8538092011850469 255 255 255
-0.0679766850235094 0.3832491621477425 0.8143477864228430 255 255 255
-0.1078915117539828 0.3798160317960038 0.8418634674394307 255 255 255
-0.0705793641516331 0.3835123859708729 0.8139711847900257 255 255 255
-0.0692072543172275 0.3843091485646283 0.8128815644538488 255 255 255
-0.1064098574540526 0.3866335461882864 0.8446756655993983 255 255 255
-0.0831353055293374 0.3868513028401712 0.8259309503035492 255 255 255
-0.1304150643806871 0.3781189367520845 0.8525018013692263 255 255 255
-0.1055191753691686 0.3842034772658269 0.8397989424876970 255 255 255
-0.0902345856542154 0.3872244960504861 0.8300277119874955 255 255 255
0.0215217272058552 0.4123673899563238 0.7675420460315987 255 255 255
-0.2079476428294438 0.1569814317494858 0.6392256044541716 255 255 255
-0.0093712342830108 0.4081910565327225 0.7839612985893216 255 255 255
-0.1071743419664648 0.3873171990906203 0.8368836429520101 255 255 255
-0.1012679117050759 0.3893380682503929 0.8336556964639108 255 255 255
-0.0414978878644484 0.4065130138059208 0.7987462842735469 255 255 255
-0.0302663640603421 0.4105185917567759 0.7907184115768108 255 255 255
-0.0927274247104906 0.3957240684799150 0.8211959114003630 255 255 255
-0.0940438423158641 0.3954219265281482 0.8197924743847818 255 255 255
-0.0187150967754435 0.4157395278246692 0.7832686379872889 255 255 255
0.1601640069910230 0.2445990824846594 0.8107320186243904 255 255 255
-0.2406638359565662 0.1341178456997869 1.0449243231942280 255 255 255
-0.1230770732730627 0.1869411794125696 0.9679464864639439 255 255 255
-0.0243012058583386 0.2273414539677949 0.9018269245233141 255 255 255
-0.3183782963990626 0.1272079069564823 1.0724356580295724 255 255 255
0.1087163588997970 0.2829091029894045 0.8144873099575631 255 255 255
0.1377849387344900 0.2926513866262768 0.7977383326991110 255 255 255
0.0337875774542128 0.2743759924358148 0.8411984761027802 255 255 255
0.1394159533543315 0.3222343781275865 0.7684569464471602 255 255 255
-0.2568194791059487 0.2053435567988895 1.0083916224981133 255 255 255
-0.1437840108001772 0.2467506901166181 0.9409365386893882 255 255 255
-0.3788318818820888 0.1694563313107020 1.0708135358821114 255 255 255
-0.0303140319215123 0.2887601705350711 0.8696119854545059 255 255 255
-0.1494170735923943 0.2520561108335307 0.9399035593929094 255 255 255
-0.1493301956293022 0.2534149423914763 0.9372579222260043 255 255 255
-0.2273237818047167 0.2282646419524297 0.9720433446228423 255 255 255
0.1173344201129933 0.3406486923255030 0.7761385631583395 255 255 255
-0.2020747845389958 0.2408090477090852 0.9611233493181488 255 255 255
-0.2302294470981672 0.2304487851735079 0.9707437358553693 255 255 255
-0.0408998890409890 0.2979023866488422 0.8688763660410315 255 255 255
-0.1365159974813158 0.2658102546273301 0.9142851747764064 255 255 255
-0.0471960519138593 0.2983710186477625 0.8662832521468664 255 255 255
0.0475099958298879 0.3278788691305850 0.8122170466070733 255 255 255
-0.1461615773038725 0.2664695205788346 0.9152786398871176 255 255 255
0.0332286844129165 0.3303103355536301 0.8101394993966653 255 255 255
-0.0248502861884745 0.3135149429810804 0.8419184179192529 255 255 255
-0.2846221457877701 0.3063627828571514 0.9587916625815642 255 255 255
-0.0679377845229196 0.3703395397288758 0.8304145979716872 255 255 255
-0.0767370166488706 0.3787002956212856 0.8286345879927230 255 255 255
-0.1751560217023109 0.3551634780805264 0.8759695771431275 255 255 255
-0.1130585947693989 0.3842819592198978 0.8409512223761204 255 255 255
-0.0597700133992356 0.3974035488568894 0.8119981151721740 255 255 255
-0.0345767263147533 0.4097222028041495 0.7946830681752284 255 255 255
0.0076785654503386 0.1821297528841316 0.9106399597647861 255 255 255
0.0578378041368633 0.2559196237008005 0.8439316832948721 255 255 255
0.1158239697459693 0.3058525380151497 0.7986441611821609 255 255 255
0.0778907491537877 0.3002197032724545 0.8174071009905326 255 255 255
-0.0197282680801085 0.2751936568175723 0.8730580574341582 255 255 255
0.0646538454266036 0.3120509803184726 0.8149476974761847 255 255 255
-0.1875071786913690 0.2443096612030042 0.9469356031105636 255 255 255
-0.1243005248382114 0.2720912174078660 0.9075934893824830 255 255 255
-0.1308141123914497 0.2649420668436355 0.8964394481983025 255 255 255
0.0397815055145699 0.3331024972627156 0.8118411353549315 255 255 255
-0.0006424271608182 0.3392470655261102 0.8103104061398003 255 255 255
0.1587716663313773 0.3946735727156985 0.7282941183193155 255 255 255
-0.2355918850225680 0.2912164027009773 0.9362013366148653 255 255 255
-0.2742886010459855 0.3091134695404651 0.9546336263224342 255 255 255
-0.2578190712322022 0.3112338782523185 0.9380381286583059 255 255 255
-0.0986064979989249 0.3683719618054750 0.8436926917218139 255 255 255
-0.0920433410795324 0.3703904769339793 0.8405607813904832 255 255 255
-0.1148083434992992 0.3676775967153030 0.8515626059041708 255 255 255
-0.1224148844217316 0.3676656563101586 0.8549178338966614 255 255 255
-0.2034172323040160 0.3518220315454525 0.8981350502401425 255 255 255
-0.0775059548933963 0.3810608564499445 0.8205225496515176 255 255 255
-0.0905480496358327 0.3872931626172480 0.8299811953018992 255 255 255
-0.1149255124112556 0.3830093537236916 0.8433467660912273 255 255 255
0.0196819826293357 0.4137707556105541 0.7680148432011462 255 255 255
0.0864902495231197 0.2346802954441101 0.8421305344717807 255 255 255
-0.2541921284508036 0.1361234144624057 1.0628084045224788 255 255 255
-0.0146190771547911 0.2320872747267801 0.8970977576139189 255 255 255
0.1707200544167826 0.2976363393474375 0.7745137499999504 255 255 255
0.1350006597960177 0.2921948733052050 0.7966639187670067 255 255 255
0.1634901473495685 0.3050753587093546 0.7694447526069617 255 255 255
0.0778213214957421 0.3002508739372094 0.8172320146012622 255 255 255
0.1381217367713898 0.3249791968768250 0.7785107443260482 255 255 255
-0.2845578645977802 0.1947808000292348 1.0276489239242563 255 255 255
-0.1437726288799572 0.2466215320147134 0.9408883024658430 255 255 255
0.0935604667857589 0.3239644760184723 0.7961236928253179 255 255 255
-0.2778792832395022 0.2068441580559834 1.0068974393195762 255 255 255
-0.1010568585975752 0.2720812964365272 0.8989578009907722 255 255 255
-0.0103241741907801 0.3116232329439087 0.8566706518734358 255 255 255
-0.2122577089018886 0.2374613985323739 0.9553114289478697 255 255 255
0.0498451422398564 0.3255969923286539 0.8125328390395348 255 255 255
-0.1359400023147482 0.2665869419408042 0.9148703981929329 255 255 255
0.1119448999879457 0.3461857939745189 0.7743862225261421 255 255 255
-0.0367243043867891 0.3086305910112218 0.8493564007527428 255 255 255
0.0672329819225708 0.3451139044098117 0.7951715246215604 255 255 255
-0.0251160090817971 0.3127873738463092 0.8404841924410178 255 255 255
0.0959806249806701 0.3545342541259102 0.7779111294882952 255 255 255
0.0919836299626887 0.3543494951822879 0.7769523819822324 255 255 255
0.0991097529317855 0.3541877165232892 0.7675725540853708 255 255 255
0.0501066940336146 0.3461990643990158 0.7866364100698799 255 255 255
-0.1525519843829635 0.2922976946006430 0.9024288908758329 255 255 255
0.0870513687071239 0.3648094610713912 0.7570117209548017 255 255 255
0.0320816341864489 0.3544839741823180 0.7883397615477206 255 255 255
-0.0604774350032675 0.3595903505759376 0.8304216524685398 255 255 255
-0.2639116113568443 0.3091163841928422 0.9379270778845838 255 255 255
-0.0680953087082042 0.3688718846601509 0.8293290697221387 255 255 255
-0.1323435551890455 0.3575964134841747 0.8651142433621551 255 255 255
-0.0808619344267511 0.3799172259785077 0.8313922336545581 255 255 255
-0.1754376658286726 0.3543024194122957 0.8757700767530752 255 255 255
0.0323734058014962 0.4040228041752956 0.7586257647019785 255 255 255
0.0436549556796968 0.4079912143266702 0.7500641990832229 255 255 255
-0.1200291430723075 0.3759553069296970 0.8483790216687472 255 255 255
-0.1160593800214187 0.3809667369483436 0.8442308687310383 255 255 255
-0.1132547171722696 0.3845590993096777 0.8408277280772884 255 255 255
-0.1254830683725623 0.3818481131867688 0.8466567293394961 255 255 255
-0.1244728017542715 0.3831825081036215 0.8427789674607724 255 255 255
-0.0916688090199202 0.3938788840165051 0.8271030851540749 255 255 255
0.0158099298842984 0.2453345334390273 0.8777405424603789 255 255 255
-0.2139645330585940 0.1534119731606642 1.0217143962741719 255 255 255
0.1648826183074578 0.3032048592907800 0.7677293928519677 255 255 255
-0.2598432478017382 0.2027155798043245 1.0121925400890519 255 255 255
-0.2588581167506003 0.2095280737916125 1.0095792258215610 255 255 255
-0.0352914118540405 0.2948148619430996 0.8679643504335339 255 255 255
-0.1798600040629511 0.2483251416838956 0.9418365536338945 255 255 255
-0.0696706320383581 0.2881128059539995 0.8824441999542240 255 255 255
-0.2122729177195958 0.2384225747421564 0.9558044437201105 255 255 255
-0.1556484899707001 0.2601786811378182 0.9223399475895127 255 255 255
0.0487784559789195 0.3327808149888875 0.8081336632037895 255 255 255
-0.0212465914238930 0.3127425598044913 0.8450638934185506 255 255 255
0.0802612450502039 0.3484654523573318 0.7836212145701253 255 255 255
0.0953710562238001 0.3550545194035025 0.7735916963674229 255 255 255
-0.0169635181951213 0.3207267794222987 0.8275121951640347 255 255 255
-0.1477432699810411 0.3157035617044739 0.8903428416128603 255 255 255
-0.3728212133688931 0.2788531692313998 1.0109785595275085 255 255 255
-0.3686429243489033 0.2679085973039332 0.9652213593543078 255 255 255
0.0625177940059189 0.3944602584036198 0.7513516995079814 255 255 255
0.1867296881603402 0.3117872961046164 0.7577122891235564 255 255 255
0.1503967199938873 0.3151200641886396 0.7785155402767525 255 255 255
-0.1815011378414385 0.2381267902543366 0.9587570237247099 255 255 255
-0.1389539168191858 0.2589464625301949 0.9310720609799370 255 255 255
-0.1297074583737561 0.2650512098760309 0.9131445986797582 255 255 255
-0.0321165110436717 0.3028254973277749 0.8581505495657518 255 255 255
0.0186596636424310 0.3312801571226788 0.8104890225758745 255 255 255
0.0454938758419350 0.3753497229120644 0.7697569699079099 255 255 255
-0.3254529291938677 0.2951661206471585 0.9735474596241618 255 255 255
-0.2599349255066188 0.3076724820179746 0.9335032415244342 255 255 255
-0.1527085388195532 0.2490835723917533 0.9334939514089240 255 255 255
-0.0680992094406703 0.2886971559181017 0.8822904041253672 255 255 255
-0.2546717055778898 0.1347325108603297 1.0603091577833599 255 255 255
-0.1101102946708573 0.1918874388865093 0.9606729301220649 255 255 255
0.1713085781337969 0.2996732472155048 0.7782497006220224 255 255 255
0.1367139033210858 0.2895808782347187 0.8006280153327374 255 255 255
-0.0240848053388043 0.2282077479860147 0.9032985944572349 255 255 255
0.1679181381536885 0.3022236275748789 0.7807394708592141 255 255 255
0.1001551544802163 0.2796939079512388 0.8212657713039357 255 255 255
-0.3179929444868572 0.1273165820126989 1.0727250367101817 255 255 255
-0.3082231748212337 0.1331714674384543 1.0656577403183696 255 255 255
0.1561419313686396 0.3113064552044684 0.7782322246228659 255 255 255
0.1536832082733777 0.3131764633769061 0.7783416844551097 255 255 255
-0.1987269935853420 0.1789399833363978 0.9933221024465593 255 255 255
0.1485164931064515 0.3165797972690783 0.7805696627990519 255 255 255
0.1500886824227980 0.3164087022427886 0.7762288513435185 255 255 255
0.1159646507328342 0.3061492635231926 0.7989284341621032 255 255 255
0.1468665930791313 0.3181413679947407 0.7780692320943019 255 255 255
0.1110778787565501 0.3056273973179251 0.7958080256027678 255 255 255
0.1455080956938967 0.3204133752567289 0.7786439068355672 255 255 255
0.1420273558239415 0.3211741579090486 0.7800198948255970 255 255 255
0.1104444635794604 0.3104372076859091 0.8006394320898278 255 255 255
0.1428011374671103 0.3219567047004070 0.7758706583655077 255 255 255
0.1026703512574689 0.3164549604973876 0.7995594691174206 255 255 255
0.1340058287512149 0.3272094639568097 0.7793979988120352 255 255 255
0.1294026327735063 0.3311272167507209 0.7794927824617162 255 255 255
0.0917826410617053 0.3264336998119912 0.7960999264576367 255 255 255
0.1211852139516041 0.3385525603116051 0.7799691288536712 255 255 255
-0.3634357540029353 0.1622295976066883 1.0772397066969832 255 255 255
0.0894680296509534 0.3283611006852549 0.7955649905602848 255 255 255
-0.2848762659634302 0.1964771183376504 1.0257552790201561 255 255 255
-0.2410467971102301 0.2176523139509197 1.0055331822866496 255 255 255
-0.2193923825561488 0.2240723767005455 0.9786268884344613 255 255 255
-0.1509765228843452 0.2498800940799626 0.9348531296761322 255 255 255
-0.1486494750562261 0.2542659539707248 0.9378146591829454 255 255 255
-0.1296802818915013 0.2630070654251186 0.9268933123556371 255 255 255
-0.2923563565275740 0.2007056992284282 1.0177750583824174 255 255 255
0.0784537602892441 0.3358768247903408 0.7964342542845655 255 255 255
-0.3657806242962240 0.1726685406658337 1.0582794588291407 255 255 255
0.1076486007666961 0.3483599576589369 0.7788136317699426 255 255 255
-0.0590647844497042 0.2911311032076820 0.8803863809888655 255 255 255
0.0749387451183087 0.3391425652368112 0.7946195672467239 255 255 255
0.1053090895899866 0.3485752130987043 0.7751400705871658 255 255 255
0.1035186058159514 0.3508180397433787 0.7732160630077747 255 255 255
-0.2106590063123869 0.2400406802071915 0.9603188233946680 255 255 255
0.0710828866855047 0.3424350783492396 0.7936978143927158 255 255 255
-0.1983543350605060 0.2437390225265563 0.9484478769684277 255 255 255
0.0704852148507402 0.3445343325213915 0.7918602946865414 255 255 255
-0.1604132323646122 0.2601043854058096 0.9252897089313281 255 255 255
-0.2674868434555319 0.2256754509466901 0.9880231931826571 255 255 255
-0.2923145893723244 0.2175664554676358 1.0032186147073912 255 255 255
0.0930575002078249 0.3568129676834728 0.7684589583208150 255 255 255
0.0917322831850060 0.3573924890789639 0.7708486539337325 255 255 255
-0.3747005422903094 0.2137896251957023 1.0509700556945116 255 255 255
-0.2447588337917384 0.2537901441349941 0.9621791631195601 255 255 255
-0.3240989698779395 0.2314781187698178 1.0075820127862167 255 255 255
-0.2280134362065279 0.2725427961954430 0.9453653837117932 255 255 255
-0.3390320140932668 0.2443952682608947 1.0094036003485192 255 255 255
-0.3396890473962698 0.2474283473356502 1.0066285164675390 255 255 255
-0.3742853225756113 0.2564217578043959 1.0249531367395084 255 255 255
0.0475991025275578 0.3904148621740331 0.7598854391226838 255 255 255
-0.1013936554698278 0.3586990607469671 0.8521293720581458 255 255 255
-0.1192393591359271 0.3560834263479378 0.8606414839086827 255 255 255
-0.2679882405639598 0.3120311541411445 0.9524339066499284 255 255 255
-0.2803276975375791 0.3069150686332123 0.9564709629621388 255 255 255
-0.2917738543119953 0.3027993480890618 0.9626594984592840 255 255 255
-0.2663260228117355 0.3110830435177512 0.9473635635751885 255 255 255
-0.0837889844359592 0.3695551346581762 0.8383785155516108 255 255 255
-0.2662376759538265 0.3131279830277416 0.9465773066596319 255 255 255
-0.0946030747862143 0.3678125132482739 0.8434064524849312 255 255 255
-0.0769143504960379 0.3768716413261011 0.8360620330261135 255 255 255
-0.1060962067789101 0.3655604814234603 0.8501175338137739 255 255 255
-0.1003270265827331 0.3664712619295896 0.8439018040288691 255 255 255
-0.0849790623237788 0.3726718925250261 0.8367465922068991 255 255 255
-0.0912452982199856 0.3704888573155896 0.8401093640074492 255 255 255
-0.0901047225083238 0.3715394824226630 0.8385437793877237 255 255 255
-0.3418685059155324 0.2887032227906805 0.9823559590238302 255 255 255
-0.0808343805184268 0.3765490298212084 0.8341214864761879 255 255 255
-0.1167700879046366 0.3645564487124089 0.8529869331643165 255 255 255
-0.0844703465889800 0.3774890728697491 0.8346706291549566 255 255 255
-0.0863730455934506 0.3791450545813797 0.8376281757569819 255 255 255
-0.0892776217818338 0.3771611061263007 0.8355859416612184 255 255 255
-0.2833067486697646 0.3121740954272649 0.9420310672820316 255 255 255
-0.2611042062434831 0.3249089758207466 0.9299404223600778 255 255 255
-0.1153870337971221 0.3760625439120098 0.8508060002076405 255 255 255
0.0176877808686189 0.4158073334709660 0.7691923711419848 255 255 255
-0.1084410717850146 0.3816531123575513 0.8470102418332215 255 255 255
-0.1158502950434548 0.3787512890297832 0.8496758860204253 255 255 255
-0.1512475195343193 0.3668826311230831 0.8675222099349771 255 255 255
-0.1132198201501924 0.3778861826695743 0.8439064203830358 255 255 255
-0.0979012837420186 0.3859278893654627 0.8366542796002188 255 255 255
-0.0886829064074630 0.3882434274852757 0.8284569018501191 255 255 255
0.0127843983887661 0.4190613074591265 0.7671533419606608 255 255 255
-0.1027479723084579 0.3851628387123465 0.8364218669515281 255 255 255
-0.0432940166095133 0.4074100764791249 0.7953808957530031 255 255 255
0.0098416755776902 0.4191783522009245 0.7587684528335801 255 255 255
-0.0193060351672241 0.4172642241292204 0.7824936166392638 255 255 255
0.0047713369813458 0.4271043599064011 0.7687123707247259 255 255 255
0.0071268399630821 0.2399868889731512 0.8861628397283648 255 255 255
0.1276698143451684 0.2968285431039318 0.8048444950640913 255 255 255
-0.0013341161441180 0.2519571899119752 0.8799097909468081 255 255 255
0.0289977103566965 0.2657794081862894 0.8592375875788392 255 255 255
-0.2836070783816844 0.1956848925545606 1.0268654913650455 255 255 255
-0.2996916091940224 0.1905268648185103 1.0292534479133491 255 255 255
-0.2593240660289756 0.2097572951504145 1.0066911875462408 255 255 255
-0.1609138912930141 0.2496452479966911 0.9468812056838045 255 255 255
-0.3809189573194032 0.1706071816319361 1.0772186937719690 255 255 255
-0.1511026465030474 0.2554400054964407 0.9366571767520027 255 255 255
-0.2972891796095445 0.1925999294994676 1.0044487407610412 255 255 255
-0.0843810988409602 0.2823020800818485 0.8882692184115942 255 255 255
-0.2236862248644446 0.2313376512994431 0.9679859405056532 255 255 255
-0.0172853791285812 0.3118467863855239 0.8426941504846104 255 255 255
0.0971810307937661 0.3571476902288946 0.7800522539287020 255 255 255
-0.3770813992282969 0.2621528688522132 1.0247389626831245 255 255 255
-0.1653054881422633 0.3456713963947682 0.8828325021775556 255 255 255
-0.2592497715410547 0.3170329407969610 0.9351359859104549 255 255 255
-0.2044291438912216 0.3494155127981293 0.8985718422136872 255 255 255
0.0135358295469923 0.4188340360298439 0.7685560654007499 255 255 255
0.0106661124216347 0.4191423260839882 0.7679530496620339 255 255 255
-0.0872454426617447 0.3938123942483919 0.8254900317000664 255 255 255
-0.0190150810469663 0.4151630942699138 0.7853798484500163 255 255 255
-0.0162676243425539 0.4147076478972376 0.7806886380700360 255 255 255
-0.0020304930268398 0.4244348429086293 0.7765319350555719 255 255 255
-0.0895329544858966 0.3967034943007612 0.8244446384206037 255 255 255
-0.0943543768380499 0.3946303509129674 0.8247875450161555 255 255 255
-0.0022339237623537 0.1770239022626277 0.9189793638807648 255 255 255
-0.3058001766860801 0.1038399190893161 1.0804126879866485 255 255 255
0.1054323047696328 0.2752119907841153 0.8213541305139074 255 255 255
0.0423911723690629 0.2500672800972242 0.8592566495245175 255 255 255
0.1342061623291453 0.2917492910417505 0.8004126493344677 255 255 255
0.0882288106488442 0.2912749381986470 0.8190414598972415 255 255 255
-0.2497519522461052 0.2094399267882275 1.0011390462996705 255 255 255
0.1712003483330461 0.3609065388775208 0.7329071530301061 255 255 255
-0.1260641926000590 0.2662667453983203 0.9268520187126081 255 255 255
0.0802520305578034 0.3480986759006579 0.7864666492396803 255 255 255
0.0159160057896308 0.3302838565819330 0.8130989317594581 255 255 255
-0.2804141895118162 0.3066126679080226 0.9560712642365816 255 255 255
-0.1323088649222202 0.3575969966434638 0.8650511285456712 255 255 255
0.0184387927813892 0.4161980640973706 0.7695775928828539 255 255 255
-0.1243319232658274 0.3743626564176270 0.8512074287022657 255 255 255
-0.1130677142718042 0.3780609636493253 0.8446042117457182 255 255 255
-0.0935976453273337 0.3876481266277267 0.8303937191009174 255 255 255
-0.1027554765418077 0.3851343882744173 0.8361272161968912 255 255 255
0.0045742876728938 0.4320531092999841 0.7780224560014564 255 255 255
0.1669559886284363 0.3019557293484609 0.7805302345551515 255 255 255
-0.1930150944608238 0.1823476949463776 0.9914500837427394 255 255 255
0.1156970170796894 0.3063130511636190 0.7983932455658642 255 255 255
-0.1398298930034151 0.2388815650105358 0.9438575137346508 255 255 255
-0.2857201982735982 0.1979929406793763 1.0248430586172925 255 255 255
-0.2466352694717053 0.2126477317216113 1.0022060812357556 255 255 255
-0.3748846273662463 0.1690316553948814 1.0811922829922698 255 255 255
-0.3312233510618182 0.1846546375640692 1.0438406827424416 255 255 255
-0.3248070043910274 0.1869978859016380 1.0386581059551308 255 255 255
-0.3750627473879695 0.1747870472612501 1.0644350132638354 255 255 255
-0.2334260722354142 0.2288966490424011 0.9764431854051645 255 255 255
0.1006349356305745 0.3544091522349984 0.7753417104293618 255 255 255
0.0714911121868625 0.3477605039729033 0.7945939525578721 255 255 255
-0.0299605363248765 0.3099589026696501 0.8407439992838679 255 255 255
0.0849527262466938 0.3908444732190279 0.7450900056350100 255 255 255
-0.1234461559018279 0.3479403323841208 0.8670655417815962 255 255 255
-0.2917304281356532 0.3031427142416128 0.9631403006357866 255 255 255
-0.2527602119628196 0.3101590057269792 0.9325335450768966 255 255 255
-0.1275745400747772 0.3569375191071906 0.8634536516370365 255 255 255
0.0327125325157609 0.3998165246402694 0.7589267759128084 255 255 255
-0.2595483965348361 0.3153800808295983 0.9330443804671793 255 255 255
-0.1224699355202173 0.3831782523900853 0.8451318871296265 255 255 255
-0.0156348628491010 0.4140536806329358 0.7799657250706966 255 255 255
-0.0896935989498564 0.3958027678452565 0.8240242703186826 255 255 255
-0.0971956656708890 0.3926557342374932 0.8266654036592271 255 255 255
-0.1104621310835379 0.3886666345798639 0.8328533158419011 255 255 255
-0.0996327929880730 0.3933350141723382 0.8257655054741557 255 255 255
-0.0945604555081057 0.3950288803978577 0.8192620022255213 255 255 255
-0.0890090475523421 0.3950635291088143 0.8133607838591652 255 255 255
0.0862378937879738 0.2340556474885498 0.8437544517109787 255 255 255
0.1016763448771805 0.2849568256878245 0.8181966734435990 255 255 255
0.0223250475604360 0.2768002079867440 0.8493600420678131 255 255 255
0.0084423418435946 0.2908111698605071 0.8445123708680129 255 255 255
-0.2851940579871282 0.1974485143476121 1.0237314360401388 255 255 255
-0.1511545936340721 0.2541174180367720 0.9375152091055159 255 255 255
0.0778382272236833 0.3373386458418715 0.7946869732833486 255 255 255
-0.1798601785949500 0.2483802274126243 0.9429033219726459 255 255 255
0.0657740851345583 0.3450510549587706 0.7948780924667647 255 255 255
-0.0021881325801119 0.3266687033451743 0.8189704877537753 255 255 255
-0.0610452417527063 0.3596620664100882 0.8299513321750549 255 255 255
-0.2916122005719288 0.3020987214985107 0.9619558670781183 255 255 255
-0.1133259884937099 0.3642331847909345 0.8530225400046378 255 255 255
-0.2608274363591611 0.3142610304070743 0.9329714912590683 255 255 255
-0.0582380022419393 0.3952764195058367 0.8092933504471014 255 255 255
-0.0339367901417917 0.4116566728265872 0.7914321565037002 255 255 255
-0.0947849319908827 0.3941315600943708 0.8266317793900135 255 255 255
0.4011006715213092 1.6648797298658664 3.1693633953055098 255 255 255
-0.1227953608641733 0.2628018018122296 0.9146297701792556 255 255 255
-0.1983178261700080 0.2441786577229426 0.9483174335447331 255 255 255
0.1647576946720419 0.3031878452535794 0.7850523231692383 255 255 255
0.1683952319726454 0.3033718475895242 0.7758299833817137 255 255 255
0.1194261589735263 0.2902633640339287 0.8136618574184105 255 255 255
0.1220121691452167 0.2936088378469606 0.8025163402993125 255 255 255
0.0297887874988086 0.2703797482589489 0.8503363600349794 255 255 255
-0.1512120448527853 0.2646001112396852 0.9151714802174366 255 255 255
-0.0444804022673617 0.2929235922872531 0.8744855368240216 255 255 255
-0.1761870189295649 0.2427179798875532 0.9531653097969146 255 255 255
-0.3653284076366078 0.0300088456573463 1.1528450035286055 255 255 255
0.1964742516905780 0.2802626489423303 0.7737638572525144 255 255 255
-0.0645328941424927 0.2043656498002328 0.9240308777828294 255 255 255
-0.2135344053405083 0.1479627114695674 1.0283812335468121 255 255 255
0.1663108884556506 0.2997332450998300 0.7720306068786718 255 255 255
0.1658917478322737 0.3040716712629461 0.7791048126526490 255 255 255
-0.1252553375279297 0.1880652330738708 0.9734607406323346 255 255 255
-0.1118156430267698 0.1923662130073827 0.9605130169657383 255 255 255
0.0387023618413114 0.2540626421185195 0.8612728403439993 255 255 255
0.1023673849960947 0.2789881714158300 0.8148257885161367 255 255 255
-0.1896470410186893 0.1621312129128132 1.0015292926941921 255 255 255
0.0965848963133791 0.2831383470171209 0.8198006924913765 255 255 255
0.0311967815221301 0.2634248313199388 0.8601779869972495 255 255 255
0.1524241747217925 0.3136926418671946 0.7762166999736140 255 255 255
0.1508369361501751 0.3151270190825035 0.7786439041004329 255 255 255
-0.0070552054187036 0.2595013246978537 0.8772708016942541 255 255 255
0.1447668384327503 0.3204699190552884 0.7759433406425060 255 255 255
0.1127253945104476 0.3084651897241628 0.7979558897618968 255 255 255
0.0225939230882601 0.2751330156865064 0.8615039563696505 255 255 255
0.1406001911715301 0.3204354947513812 0.7710870850164762 255 255 255
0.1090111826857836 0.3122516898302875 0.7959598445044265 255 255 255
0.0194613834675375 0.2774090627209507 0.8538969653401853 255 255 255
0.1068568857261889 0.3135594599451879 0.7977223666635669 255 255 255
0.1365622432661635 0.3259861919728380 0.7774374789234040 255 255 255
0.1314746480519120 0.3303023307402437 0.7749417189324368 255 255 255
0.1303266545579440 0.3313067355144730 0.7775324378079222 255 255 255
0.0995824325969235 0.3201701774785213 0.7970063066226463 255 255 255
-0.0485922421939968 0.2623259439220309 0.8912991546787987 255 255 255
-0.3419557473459939 0.1496087837004803 1.0770062621411327 255 255 255
0.1199369813484985 0.3397270536679127 0.7743488153143421 255 255 255
0.0031927914577676 0.2940886052104417 0.8525368993253144 255 255 255
0.1163599619225435 0.3410788541437029 0.7762497008759013 255 255 255
-0.0281581818408174 0.2856279805231861 0.8698151012987791 255 255 255
0.0845322767086422 0.3326102549548623 0.7952661465929365 255 255 255
0.0844585413877121 0.3320271646325796 0.7931198248181897 255 255 255
0.1115737276730500 0.3455079723008625 0.7743581121898017 255 255 255
-0.2533343602878289 0.2032078349690498 1.0118832491617926 255 255 255
-0.2810577899923565 0.1956306170866857 1.0272441414248159 255 255 255
-0.2480428334625431 0.2138602233219613 1.0083588950266185 255 255 255
-0.2581182277751264 0.2074226951614944 1.0087262162163406 255 255 255
-0.2555456410802869 0.2088187456355111 1.0075237023969059 255 255 255
-0.2375413712644189 0.2167501972852559 0.9964623984378178 255 255 255
-0.1621991963756199 0.2489762344726663 0.9504163213581026 255 255 255
-0.2599921533929770 0.2118966639533628 1.0127078274271346 255 255 255
-0.1857675046345060 0.2458466904679986 0.9667567853945433 255 255 255
0.0425472141643735 0.3327782383223501 0.8098237460071012 255 255 255
-0.0127152566017672 0.3104099427192322 0.8410628313633597 255 255 255
-0.1104438221009998 0.2810047825102266 0.9034281571710636 255 255 255
-0.2418362271055525 0.2548624998166200 0.9601905727931797 255 255 255
-0.3381464676269261 0.2193458726048751 1.0199835619601130 255 255 255
-0.3240746333110222 0.2346586102338823 1.0070276208906421 255 255 255
-0.2114323721728860 0.2888742193500050 0.9389418875996300 255 255 255
-0.3502788367576563 0.2470165539345801 1.0226260921902881 255 255 255
-0.2487392762452858 0.2920330418153707 0.9427998340782056 255 255 255
-0.1327523060481881 0.3434243698504975 0.8738155590371539 255 255 255
-0.0657198003393185 0.3679854686578752 0.8212730905398846 255 255 255
-0.2142425887035069 0.3401758133304877 0.9509724876723551 255 255 255
-0.0730819621829182 0.3742679414058796 0.8307602097339466 255 255 255
-0.2019456333449447 0.3291440683617983 0.9113948027274921 255 255 255
-0.1028153570735379 0.3687201079840712 0.8469645579461469 255 255 255
-0.2531331098336382 0.3051229849825026 0.9354625963505250 255 255 255
-0.2495883012475690 0.3063546002037834 0.9328892614441564 255 255 255
-0.2029862716606969 0.3312990589508291 0.9098496009778488 255 255 255
-0.0731404179994399 0.3762520616168761 0.8195264109413245 255 255 255
-0.0961467643630423 0.3742950634490594 0.8401318050421898 255 255 255
-0.0814745223199829 0.3803797229222439 0.8303466612320269 255 255 255
-0.2786165939879803 0.3042528572666852 0.9577009074523026 255 255 255
-0.0754214548489854 0.3817265936110188 0.8251021496847891 255 255 255
-0.1135644877722610 0.3675805995277506 0.8499054948859263 255 255 255
-0.1645114985148317 0.3427237130822247 0.8748522603693649 255 255 255
0.0169771723713181 0.4141040965953320 0.7594326337905142 255 255 255
-0.0723303967118385 0.3804785505476107 0.8164601066313730 255 255 255
-0.2622656014549732 0.3116223615372662 0.9435727505081237 255 255 255
-0.1221159870260053 0.3679468631006527 0.8550507310493528 255 255 255
0.0110826644916124 0.4200480752148361 0.7685951059337333 255 255 255
-0.1171696139824256 0.3704447881227666 0.8516456520039450 255 255 255
-0.2600722985717121 0.3150057119091936 0.9431442277184394 255 255 255
-0.1121922516397589 0.3730655435463017 0.8476504682660515 255 255 255
-0.2489449863278893 0.3155547249824004 0.9277058222887793 255 255 255
-0.1042792966176074 0.3744374894681322 0.8379001792223590 255 255 255
0.0118474403458058 0.4180543979319222 0.7594964768279246 255 255 255
-0.1205008283742455 0.3712029450234979 0.8521559429640420 255 255 255
-0.0872149173841066 0.3873213673843052 0.8284532069100434 255 255 255
-0.0024180688939984 0.4211985661846802 0.7728548946828135 255 255 255
-0.1212599591122112 0.3752956600397268 0.8493360813785922 255 255 255
-0.0169257226577573 0.4151475082635399 0.7812575499071155 255 255 255
-0.1075656763500055 0.3835839612715057 0.8394034192831556 255 255 255
0.0022271043753430 0.4263773713783943 0.7688975819600744 255 255 255
-0.0062638890065640 0.4224433289715139 0.7714494050310865 255 255 255
0.0050996770061791 0.4235334872676808 0.7588700451139423 255 255 255
-0.1174275345012648 0.3836875698392563 0.8431229439430397 255 255 255
0.0417414823676676 0.4542442352613278 0.7344862314011387 255 255 255
-0.1818485974039157 0.2969558882656886 0.7951972285930922 255 255 255
0.0456375783136895 0.4552879253467257 0.7311860124062726 255 255 255
0.0918251993177179 0.4744351983546871 0.6930433791188846 255 255 255
-0.2354750023378175 0.1382244816956100 1.0422817155736290 255 255 255
0.1326937847860983 0.2925851477716781 0.8042489591458082 255 255 255
-0.3132571424631205 0.1305442768402560 1.0703404221371855 255 255 255
0.0234126332128746 0.2743704553565411 0.8571817661242949 255 255 255
-0.2753359663086115 0.2004633110432990 1.0208059570571644 255 255 255
-0.3084329721886040 0.1944008951438227 1.0296584247539584 255 255 255
-0.3032414578444974 0.1965161870153769 1.0259810298189236 255 255 255
-0.3424371826845347 0.1818037538752684 1.0453107379444706 255 255 255
-0.3407039190922143 0.1838930974116479 1.0421396039102255 255 255 255
0.1560874253218325 0.3910488922956388 0.7256859231663557 255 255 255
0.0634413048446224 0.3949955098581560 0.7512200013220249 255 255 255
-0.0628521992916191 0.3679009994420710 0.8275382849907427 255 255 255
0.0253719776784314 0.4099038523723793 0.7681731839881851 255 255 255
-0.0731790368067742 0.3789583479646459 0.8287140681348650 255 255 255
-0.2623192227034673 0.3111855572847699 0.9431617893291273 255 255 255
-0.2898398347403490 0.3035452998674337 0.9633292718442021 255 255 255
-0.2954237309487681 0.3019332330503857 0.9651629625585549 255 255 255
-0.0176977712086650 0.4176472360318861 0.7794271989849264 255 255 255
-0.1058307530013307 0.3853767157674826 0.8369462852960323 255 255 255
-0.2151537461079174 0.3420099060042210 0.8996451123988507 255 255 255
-0.0058517048637352 0.4344378084477665 0.7682159079506139 255 255 255
0.0959403699457670 0.4809621619286180 0.7054388757228196 255 255 255
0.0114072053593350 0.4375013913350836 0.7480138472860720 255 255 255
0.0927334755144882 0.4795888739467902 0.7051639594812045 255 255 255
0.1050844906134827 0.2749968877898721 0.8212282451204340 255 255 255
-0.3057176698341534 0.1057908191282446 1.0833829604345224 255 255 255
-0.2128561277055433 0.1481967648642961 1.0286825751888775 255 255 255
0.1255476687263084 0.2981653054259548 0.7990305248134602 255 255 255
0.1539125728971609 0.3124123287399287 0.7778852349007837 255 255 255
0.1497438376693054 0.3160258558509996 0.7755438603963194 255 255 255
0.0257821976143928 0.2696681964191225 0.8588749988239237 255 255 255
-0.2155457783361623 0.1794893784636862 1.0088697227690548 255 255 255
0.1091045144862743 0.3123322837682361 0.7956425172937589 255 255 255
0.1311465026503416 0.3296495606079479 0.7740358723147107 255 255 255
0.0846019810463607 0.3321102396536277 0.7927386216794607 255 255 255
0.0804644015259566 0.3355294876306587 0.7943365282545662 255 255 255
-0.2841993367811093 0.1941944483776088 1.0218893461026330 255 255 255
-0.1296641908309022 0.2642820008776292 0.9292965864528311 255 255 255
-0.3159085500605561 0.1955172859872787 1.0308009375891447 255 255 255
0.0460992128482465 0.2486568264043485 0.8627289403677700 255 255 255
0.1713890267794245 0.2993642668538197 0.7780300376528668 255 255 255
-0.1120226982320696 0.1893130775053400 0.9613330602550503 255 255 255
-0.2390776278964988 0.1382126523983178 1.0436119051674666 255 255 255
0.1666841573657809 0.3008878748669899 0.7728946896768365 255 255 255
-0.2322369785253970 0.1411306540309365 1.0390751322659808 255 255 255
-0.1384949659437976 0.1804425122355987 0.9785418679751310 255 255 255
-0.0163561352764403 0.2325907175377244 0.9000336720062627 255 255 255
0.0141882448651822 0.2438475768539243 0.8769809335080971 255 255 255
0.0389672721951400 0.2545586291522965 0.8618034942400679 255 255 255
0.1312606883863614 0.2918772614909084 0.7999880450030306 255 255 255
-0.0882183976008815 0.2046670188170319 0.9429791298567727 255 255 255
-0.2083905577996049 0.1578246939852148 1.0197151409837493 255 255 255
-0.3129108065654704 0.1302730666160961 1.0690786762076101 255 255 255
0.0035477633646697 0.2939077908456031 0.8525638350490143 255 255 255
-0.2525864606128216 0.2003974273595945 1.0125850711090898 255 255 255
-0.2230905528492974 0.2143098105822281 0.9847630656048652 255 255 255
-0.1171047309951398 0.2608753323194213 0.9212467331366652 255 255 255
-0.0064887360791661 0.3059720924650311 0.8494810135044837 255 255 255
-0.2572927667119884 0.2059974195707279 1.0104848747583257 255 255 255
-0.2788850390380793 0.1983262722665803 1.0238072292952063 255 255 255
0.0997945624068133 0.3524690352166275 0.7696984993777725 255 255 255
0.0552748604989013 0.3394385108803220 0.8028705444801614 255 255 255
0.0325452450929804 0.3311579331372871 0.8120245710399724 255 255 255
-0.3156919244146660 0.1896470989430140 1.0313441195965194 255 255 255
-0.0182207997179522 0.3133670912758963 0.8371174395610037 255 255 255
-0.1476652469599093 0.2630715042687708 0.9171016182113523 255 255 255
-0.1219546053120675 0.2763740588470610 0.8977191217275076 255 255 255
-0.3488230910557974 0.2093099922723789 1.0322375232956911 255 255 255
-0.1638348153187830 0.2983606167710047 0.9234180435563699 255 255 255
-0.0570238058572998 0.3599750733002534 0.8254441133640567 255 255 255
0.0247654282467735 0.4105704630380380 0.7685007645166699 255 255 255
-0.0811421536957380 0.3834704068233679 0.8343743575227811 255 255 255
-0.2937231434297607 0.3026065071127187 0.9676096838368897 255 255 255
-0.2678830366129608 0.3136343681046743 0.9478348544600061 255 255 255
0.0254107347753392 0.4224834321619051 0.7503686389689941 255 255 255
-0.2437485211130326 0.3214419948579170 0.9230329822761716 255 255 255
0.1151986231189355 0.5072337751483680 0.7450700400670822 255 255 255
-0.0165653846457809 0.4199239178175858 0.7813357338931479 255 255 255
-0.0088283715645823 0.4226738070805509 0.7746906054028277 255 255 255
-0.1053234333923947 0.3857385134803772 0.8369493602566385 255 255 255
-0.1083359238138835 0.3876858035775400 0.8375332758377021 255 255 255
-0.1046326295442862 0.3912075831751345 0.8290932135034013 255 255 255
-0.0057978198465443 0.4342191990306470 0.7686311315024883 255 255 255
-0.3076975113849821 0.1031320685617660 1.0804229272356585 255 255 255
-0.2689356588224921 0.1261578281792592 1.0642838150196061 255 255 255
-0.2740663476382372 0.2016385773520368 1.0207175942413618 255 255 255
-0.0410040939982532 0.2974507288048868 0.8715945370238385 255 255 255
0.0986578547922399 0.3575769168546872 0.7823329585680159 255 255 255
-0.2338865685333353 0.2230511210460291 0.9846253811540659 255 255 255
-0.1476850469599363 0.2613789515584408 0.9204670845806701 255 255 255
-0.0809560366741138 0.2896888726229707 0.8766576840331379 255 255 255
0.1544703133125269 0.3924297033996189 0.7286143872042887 255 255 255
-0.1537852266871604 0.2618378610662204 0.9159252625393681 255 255 255
-0.0528623728765520 0.3356040142064414 0.8380285913149166 255 255 255
-0.0012269388921968 0.4298885097724501 0.7680731156450165 255 255 255
-0.0058173860429414 0.4340906008039895 0.7693817440901016 255 255 255
0.0107871967580495 0.4362194825874681 0.7470798265839278 255 255 255
-0.1602394813319874 0.2483244711399741 0.9438697150917167 255 255 255
-0.0386645318451821 0.3067925287353321 0.8751462424502381 255 255 255
-0.0622363974695430 0.2907413587937393 0.8774036870423298 255 255 255
-0.1131363377679389 0.3646711997065391 0.8528075564340403 255 255 255
0.0020353476018853 0.4278694593259722 0.7679922135258463 255 255 255
-0.1464736712309824 0.1763269394381743 0.9843551901968616 255 255 255
-0.1365349859666067 0.1816059570689403 0.9771692370384573 255 255 255
-0.0851433242623150 0.2022836312441036 0.9420586784229581 255 255 255
0.0389476629835430 0.2541551774211541 0.8614291997931964 255 255 255
0.0211283594453375 0.2762372268508868 0.8469124886616575 255 255 255
-0.0458967977730521 0.2590042054191636 0.8928068101619919 255 255 255
-0.0242568955140037 0.2802453456177059 0.8713222728134173 255 255 255
0.1131009035572907 0.3511886040092400 0.7758888363717846 255 255 255
-0.1227270436366599 0.2619587954619571 0.9254450677297981 255 255 255
0.0999145707700575 0.3589672592898692 0.7851676914466010 255 255 255
-0.0408659711628891 0.2991838982471848 0.8661627586928531 255 255 255
0.0466589903851204 0.3321031133540773 0.8017612507573197 255 255 255
-0.2359075208858504 0.2211322962679352 0.9850749034415019 255 255 255
0.0871630767492599 0.3593171165616198 0.7755370230046854 255 255 255
-0.0619060948834350 0.3627520223173297 0.8325474113946448 255 255 255
-0.0345160440996537 0.4100395138421504 0.7900795023381040 255 255 255
-0.0087082578123197 0.4218100936907274 0.7738828706263492 255 255 255
-0.0017432122464187 0.4329190812429964 0.7708374975442656 255 255 255
-0.0552976205510167 0.2871410861071562 0.8782238688903226 255 255 255
0.0830900765359894 0.3554800239356832 0.7769281916273587 255 255 255
0.0391942860495045 0.2518175112606429 0.8593157134562546 255 255 255
0.0581707813767576 0.3340128748721005 0.7888028023158231 255 255 255
0.2028170863973981 0.2692007125530047 0.7751079782926520 255 255 255
0.0685156062556569 0.2135125893051177 0.8644529044423526 255 255 255
-0.0666422117285537 0.1701166765567139 0.9437828179256686 255 255 255
-0.3171082631246844 0.0672972724157235 1.1072522944886007 255 255 255
0.0114855090532968 0.2356591336661733 0.8833499745346725 255 255 255
0.1688644529566337 0.2982872305035893 0.7628370725294670 255 255 255
-0.0834433310262086 0.1994518625522024 0.9434272868477036 255 255 255
0.0089381831118720 0.2399140289215627 0.8760908300385761 255 255 255
-0.1162189893642314 0.1885854572977932 0.9635782460317781 255 255 255
-0.1148125742693409 0.1892313542067807 0.9613694199205864 255 255 255
-0.2629361252393672 0.1277501239728971 1.0611007765646434 255 255 255
-0.3095222645082218 0.1081909786524959 1.0803384379443464 255 255 255
0.0249376250853017 0.2685060974214308 0.8582041594499734 255 255 255
0.1434342686162149 0.3218533339212317 0.7782778940190647 255 255 255
0.0228529376423241 0.2700991703598508 0.8535968012966269 255 255 255
0.0224263285736517 0.2731263063400133 0.8568116976903359 255 255 255
0.0762641475892902 0.3011496109819545 0.8163866885059479 255 255 255
-0.3131980480026257 0.1290392866521990 1.0698938371478790 255 255 255
0.0145586047110093 0.2804157746210540 0.8552903614727807 255 255 255
-0.1011215804236860 0.2316093186839208 0.9318005928376296 255 255 255
-0.1015753960235997 0.2328663854768820 0.9322110319795538 255 255 255
-0.1319814923091831 0.2206338967670129 0.9502631532835208 255 255 255
-0.2751905900160585 0.1591653948435563 1.0445790631254623 255 255 255
-0.0205997638861075 0.2764444859819815 0.8706151416543590 255 255 255
0.0605681193227916 0.3140896774989201 0.8139657469768391 255 255 255
0.0878802675821455 0.3294465351891263 0.7936570155780978 255 255 255
-0.0265452749162813 0.2816616428607430 0.8702434629399103 255 255 255
-0.1091838735375159 0.2475164885516987 0.9245552793355580 255 255 255
-0.0569862299909125 0.2736052743358317 0.8879745181457659 255 255 255
-0.0307932275292904 0.2877847346865909 0.8689307284591063 255 255 255
-0.3377602357955651 0.1516525039903600 1.0756274822603018 255 255 255
-0.2795525843934610 0.1867546028378388 1.0304180468766828 255 255 255
0.0685309902448992 0.3453580854530678 0.7944416348568684 255 255 255
0.0964489295310484 0.3558097683466477 0.7689700949501019 255 255 255
0.0641610876217316 0.3392823265417269 0.7833454409648266 255 255 255
-0.2553548801320829 0.2022269768285536 1.0105106234451851 255 255 255
-0.1739864811633105 0.2396901128640176 0.9552265526530621 255 255 255
-0.1468509188190232 0.2543749725493960 0.9363628133314741 255 255 255
0.0695469762762383 0.3568773946546048 0.7837728387352979 255 255 255
-0.2683240683028982 0.2035093175523865 1.0160233415662008 255 255 255
-0.2301362881753892 0.2226565550152468 0.9838163874183241 255 255 255
-0.1000750403602633 0.2812848881994934 0.8927798323858849 255 255 255
-0.1288787821160366 0.2691235753196484 0.9077310802156875 255 255 255
-0.1386850194182658 0.2682307780530877 0.9093154855220869 255 255 255
-0.3063918637450249 0.1954127869980611 1.0290948526453416 255 255 255
-0.3089597150296493 0.1940360357507609 1.0298396774687451 255 255 255
-0.3055957530965434 0.1972536955177593 1.0212727952520773 255 255 255
-0.3728992077703024 0.1682800753900677 1.0663283846210527 255 255 255
-0.3468400773994955 0.1811934776413660 1.0478457590555781 255 255 255
-0.3631668926111358 0.1742741783793660 1.0576873177109825 255 255 255
-0.3048521731244660 0.2003908587791450 1.0163936697417606 255 255 255
-0.3423506370950024 0.1837740371202228 1.0421588204336791 255 255 255
-0.3169043074638171 0.1951640701337043 1.0239904395329693 255 255 255
-0.3439870409161389 0.1836959312518001 1.0419027850424203 255 255 255
-0.3117239948792274 0.2059772481126632 1.0172809020207698 255 255 255
-0.3811213474311486 0.1961236241550175 1.0680581999976111 255 255 255
-0.2486517337346332 0.2508595457431930 0.9653541832302266 255 255 255
-0.3465949134094795 0.2098436602675959 1.0301028289051577 255 255 255
0.0384585876407924 0.3984052896944155 0.7602007187653421 255 255 255
-0.3693151710181790 0.2166421184322034 1.0473068716626004 255 255 255
-0.3354008619963214 0.2360358752548981 1.0117079214264220 255 255 255
-0.0629071987438672 0.3650561248451849 0.8218799746477693 255 255 255
0.0267459467294948 0.4076633688014386 0.7598018702310836 255 255 255
-0.0657147170991206 0.3678704671570654 0.8211247438688225 255 255 255
-0.0714457099009063 0.3760717801608657 0.8292414168884205 255 255 255
-0.0703087857346891 0.3735612203511964 0.8197726771021212 255 255 255
-0.0109097140888412 0.4098265103763561 0.7841090733269751 255 255 255
-0.1116849896018756 0.3637071721542855 0.8518707309792122 255 255 255
-0.1278459909724230 0.3567411477596236 0.8632115411740902 255 255 255
-0.0738025583906099 0.3775550530690959 0.8187660335299767 255 255 255
-0.0819399920005108 0.3818439077562332 0.8299489179393189 255 255 255
-0.0155169595352407 0.4148062568682516 0.7841004303343739 255 255 255
-0.0832383753332557 0.3825149977941544 0.8292871452155808 255 255 255
-0.0831584131130905 0.3866342078250842 0.8327644685213307 255 255 255
-0.0839776721199899 0.3836520619945949 0.8286763610199901 255 255 255
-0.0145236320243947 0.4169379626003806 0.7801155143272562 255 255 255
-0.1150736760513955 0.3697047098896719 0.8480595585838504 255 255 255
-0.0858725474608570 0.3866501387607078 0.8288727067244154 255 255 255
-0.2517706559283859 0.3043485816346245 0.9351710857138118 255 255 255
-0.2549285043361702 0.3103543704181275 0.9445303862994248 255 255 255
-0.0893981288731791 0.3898279094321344 0.8286052469856224 255 255 255
0.0480070674344208 0.4593261408114691 0.7315957082382032 255 255 255
-0.2691532988690271 0.3134472672531281 0.9536491350315002 255 255 255
0.0715966238120500 0.4494959954380202 0.6534723739308339 255 255 255
0.0048974289842505 0.4194723002250340 0.6849503801166057 255 255 255
0.0139637975379057 0.4193903174432423 0.6731999260190950 255 255 255
0.0021190492191732 0.4135477129881906 0.6803558246423231 255 255 255
0.0113567204438194 0.4132211235184586 0.6671416494166803 255 255 255
-0.0311584173818213 0.4005515145510441 0.7069875119177957 255 255 255
-0.0143622976871685 0.4063881571386627 0.6919206630045425 255 255 255
-0.0114442854748602 0.4069020589834142 0.6888178492015964 255 255 255
0.0236285272498180 0.4219352076856318 0.6612996789303220 255 255 255
-0.1173336541344474 0.1872970568725894 0.9666684736536699 255 255 255
0.1590091566409029 0.3084067982542631 0.7812586316388187 255 255 255
-0.2364010016249558 0.1382087276443147 1.0420637058574977 255 255 255
-0.0071559333231521 0.2585662074302517 0.8772980456689998 255 255 255
-0.0029420108455773 0.2664182642218234 0.8796609960651309 255 255 255
-0.3131862044306586 0.1290937964698098 1.0699960243019317 255 255 255
-0.3284238065736100 0.1221197375039642 1.0801966193698620 255 255 255
0.1376847277623725 0.3476676298316037 0.7547646495630025 255 255 255
-0.0545757564666731 0.2702245091551454 0.8890645919926401 255 255 255
0.0456602998891373 0.3300461279517775 0.8123638409073591 255 255 255
-0.0118337498239374 0.3114668100498177 0.8519402175968369 255 255 255
-0.0683848627451642 0.2866075948798255 0.8859269298305987 255 255 255
-0.1545882056569647 0.2519723171837542 0.9389602799125881 255 255 255
-0.3133505084523480 0.1871893218843232 1.0350852390689504 255 255 255
-0.1872937486352626 0.2456308042238771 0.9504750928247430 255 255 255
-0.1800557942779486 0.2470611346782174 0.9413707318528894 255 255 255
-0.2341863276537266 0.2251699745175619 0.9802971751457745 255 255 255
-0.2615745689703293 0.2159170632876117 0.9925403060706348 255 255 255
0.0016198588372011 0.3385727517071596 0.8099240906938568 255 255 255
-0.0591105960782947 0.3604374486308135 0.8303309618680781 255 255 255
-0.0762107723692615 0.3841585401160099 0.8243306364047457 255 255 255
0.0019912049720368 0.4301898196031866 0.7669214054435192 255 255 255
0.0477401648002251 0.4556335992491563 0.7331142356580462 255 255 255
-0.1197252531046747 0.3754456935966821 0.8471513694231226 255 255 255
