ply
format ascii 1.0
element vertex 686
property double x
property double y
property double z
property uchar red
property uchar green
property uchar blue
end_header
-0.0014291459854343 0.2784934346358696 0.8206605358272103 255 255 255
-0.1909620495329869 0.2391529004277917 0.9264572490286205 255 255 255
-0.0232290877625296 0.2781466559486871 0.8262016298654870 255 255 255
0.1255027588021838 0.3122949252038882 0.7289456576378486 255 255 255
0.2036758830681489 0.3299626566385125 0.6736183274446788 255 255 255
-0.2320890577520380 0.2328229808181979 0.9320832391482856 255 255 255
-0.1054105032842676 0.2630042095136522 0.8555881372791012 255 255 255
0.2114413963416757 0.3332146404589040 0.6664993394995311 255 255 255
-0.0373447992281289 0.2779564679161245 0.8150479541696655 255 255 255
0.0406752034724249 0.2948719775982269 0.7648114369780838 255 255 255
0.1936480776924512 0.3296233554244328 0.6652202941487619 255 255 255
0.0798431920783784 0.3058884168172211 0.7374734043218520 255 255 255
0.1098831765637893 0.3120569237712925 0.7072397787751719 255 255 255
-0.2005960814965859 0.2427126335612875 0.8894959469570187 255 255 255
-0.1124893623755265 0.2653810323760024 0.8434327854695685 255 255 255
0.1149664990641206 0.3156015419355125 0.7058266805804410 255 255 255
0.0029652136079330 0.2959886928055169 0.7872823048461977 255 255 255
-0.1346399820131823 0.2617684236093136 0.8508988288381081 255 255 255
0.0800799658737317 0.3093533985104395 0.7207047806038220 255 255 255
-0.1732397603043769 -0.2436930513498836 1.0538522073934464 255 255 255
-0.2140450249379420 -0.2448864498041996 1.0793180667705427 255 255 255
-0.0549585605370790 -0.1912363349056192 0.9952406060672914 255 255 255
-0.0123902542123986 -0.1729398882078468 0.9755330139829317 255 255 255
-0.0594679325780065 -0.1383748928327790 1.0059712174481401 255 255 255
0.1407907105246284 -0.0858915684347171 0.9001905946909279 255 255 255
-0.0617060653679919 -0.1213673973784718 1.0086223074892726 255 255 255
0.1387922695351413 -0.0731085324483347 0.9025386965727518 255 255 255
0.2980936357434381 -0.0316723616731444 0.8270499988819591 255 255 255
-0.0605703218677299 -0.1057911726066093 1.0134563045321596 255 255 255
0.1376125766932801 -0.0641789934032948 0.9124557426604554 255 255 255
-0.1818328105594136 -0.1289919330504405 1.0841337088759921 255 255 255
0.1267622803499062 -0.0628001050216236 0.9230035756576740 255 255 255
-0.0944067534538169 -0.0795457581187715 1.0208915533257636 255 255 255
-0.3595357303735822 -0.0592114447024340 1.1813181107292099 255 255 255
0.2764405801826442 0.1569766937975450 0.8581977959688842 255 255 255
-0.0999836574591644 0.1263480195920481 1.1243365224532518 255 255 255
0.2265898813549363 0.1989542788140382 0.9005114724026626 255 255 255
0.2558945986129331 0.2294344451495665 0.9025724620631586 255 255 255
-0.3392296198746063 0.0965797466236062 1.1992283771039460 255 255 255
-0.2146719645251816 0.1346283034236235 1.1586522239688868 255 255 255
-0.2525649087701858 0.1284577522716444 1.1677700994950753 255 255 255
-0.2153568679337827 0.1395283166088101 1.1463952417624603 255 255 255
-0.2384470878609184 0.1394517551649026 1.1583364869555126 255 255 255
-0.3569459350242354 0.1526679291701862 1.2104074988223807 255 255 255
-0.3290220864432571 0.1583505574597295 1.1869257123379313 255 255 255
-0.0066976609594960 0.2253378559135504 0.8769194357474639 255 255 255
-0.1580178913016628 0.1831549568061366 0.8907184783971065 255 255 255
-0.1672794291734354 0.2134693254445412 1.0042122655899273 255 255 255
0.3144410704193459 0.3235183430233766 0.7303180972387500 255 255 255
-0.2901693284210638 0.1885159473583378 1.0691894582678758 255 255 255
-0.1662445627856048 0.2168682520615166 0.9993270237894745 255 255 255
0.1935340483635306 0.3007941403824979 0.7940742016938618 255 255 255
-0.2511321992841156 0.2023730688373697 1.0425283695925351 255 255 255
-0.1739409663784859 0.2221298883989650 1.0027438403097961 255 255 255
-0.2820883477978448 0.1986071994115398 1.0573979602140549 255 255 255
0.2213197612362378 0.3048950400669933 0.7370487842403510 255 255 255
0.2601848408593948 0.3187848415886819 0.7399956859211363 255 255 255
0.1433161935018035 0.2938718582515900 0.8046546808567783 255 255 255
-0.2681249106261259 0.2062861033547394 1.0388887873721879 255 255 255
-0.1858582696594961 0.2244728295345029 0.9889807671231559 255 255 255
0.1215826769816362 0.2944319112544392 0.8069313072606517 255 255 255
-0.2746852856814410 0.2079004840868375 1.0303018942319975 255 255 255
-0.3009910247736061 0.2024174299335213 1.0413221482411981 255 255 255
-0.2506806703059290 0.2142553515508676 1.0063056270618072 255 255 255
-0.2365202340065382 0.2173083476858499 0.9941088184800355 255 255 255
0.2027630855376508 0.3136098965773808 0.7264990343547932 255 255 255
-0.1884961031881911 0.2305828593082984 0.9683489317614242 255 255 255
0.0731374916143164 0.2888160641038779 0.8050617287549388 255 255 255
0.0986897023991418 0.2952477390430772 0.7838945596033682 255 255 255
0.2482504107805843 0.3313888010190382 0.6881994343471383 255 255 255
-0.0552891524988546 0.2569706538833607 0.8310092322111284 255 255 255
0.0205830155321514 0.2768369928080270 0.7928120060088188 255 255 255
-0.0213192988073008 0.2721236712128765 0.8110497870411879 255 255 255
-0.1780702494674067 0.2414202584402556 0.9184572273113680 255 255 255
-0.0418100992687975 0.2754344283638046 0.8238910570180771 255 255 255
0.0970323930114527 0.3056696214029375 0.7356116372627375 255 255 255
0.0023693080336855 0.2850094123393694 0.7940691092773040 255 255 255
-0.0108151969050834 0.2835749966581380 0.8001912217028480 255 255 255
-0.0427021545968436 0.2786585433264066 0.8193349126062144 255 255 255
0.1478369153794814 0.3202821172131363 0.7034093725127990 255 255 255
0.0128889395136618 0.2899063949741469 0.7766151836087882 255 255 255
-0.1721520357723509 0.2509456990548498 0.8817822589952335 255 255 255
0.0949128670198061 0.3103935228823680 0.7265138977407979 255 255 255
0.1745030142695754 0.3231005545469117 0.6482509725895458 255 255 255
0.1076791101521142 0.3149029028911499 0.7110783281393618 255 255 255
-0.0137274973776362 -0.1909411748920678 0.9669950915475929 255 255 255
0.1457236051662898 -0.1466000989517269 0.8702725632291135 255 255 255
-0.0988907250155338 -0.1562630867486831 1.0251993136424797 255 255 255
-0.0190642239242629 -0.1136168174480855 0.9881339707203360 255 255 255
0.2533734360637637 -0.0416174357378842 0.8483435477236044 255 255 255
0.1381358052411372 -0.0661933516514256 0.9147405024071689 255 255 255
0.0641134182531609 -0.0795258640079687 0.9453809807196656 255 255 255
-0.1962421331958222 -0.1272713688517273 1.0917108698778115 255 255 255
-0.2222940129715871 -0.1300558846919889 1.1067173254501355 255 255 255
-0.1332220630372927 -0.0765955637030437 1.0413774336248567 255 255 255
0.0357204038791665 0.1972694648232508 1.0102428634471630 255 255 255
-0.3979253285150754 0.1258101629056068 1.2568731170100484 255 255 255
-0.0594211038600290 0.1879621763204586 0.9043052186424166 255 255 255
-0.3645779238951592 0.1483063939407168 1.2117628858038785 255 255 255
-0.0882481084472619 0.1929045655993376 0.8599326032312673 255 255 255
0.2089331389438435 0.2965208428600654 0.7908801591112152 255 255 255
-0.0584204627146150 0.2259863862865155 0.8358051543116218 255 255 255
-0.2085021590701821 0.2130823370760506 1.0161197597088076 255 255 255
0.0842956898917198 0.2851451702277803 0.8207742204501631 255 255 255
-0.1651341117682774 0.2224025505872897 0.8888538396565027 255 255 255
-0.0179356469310914 0.2676215784029914 0.8360568416319873 255 255 255
-0.1568917965123884 0.2406593720169639 0.8870862184688821 255 255 255
-0.0093226775319164 0.2778358349823845 0.8166312412815055 255 255 255
0.1075956148091546 0.3040735203126812 0.7476287287599455 255 255 255
0.1649923390553525 0.3174122117976221 0.7153372046727000 255 255 255
-0.0447010762574049 0.2732549073367730 0.8313082802310532 255 255 255
0.0172606275679357 0.2864391374740718 0.7909630254010311 255 255 255
-0.1884246169337576 0.2425487933451308 0.9080456316366630 255 255 255
-0.0434253486942175 0.2729966586139465 0.8198135753841935 255 255 255
0.0626951681061652 -0.0797078391998112 0.9432725646098254 255 255 255
0.1232084834154996 -0.0351667228951562 0.9081954591940686 255 255 255
-0.1886419448160197 -0.1010220756809839 1.0762273648684493 255 255 255
-0.2602651737005277 0.1273064123431034 1.1693799169348793 255 255 255
0.0879596353409191 0.2670464050930033 0.8559158809978609 255 255 255
-0.1799485365348268 0.2107852834084758 1.0125784336787973 255 255 255
-0.1774517634672437 0.2189887446793297 1.0070213040940263 255 255 255
-0.1965508243552541 0.2200042906205339 1.0113503795661236 255 255 255
-0.2136738566052632 0.2265729740632341 0.9707435040243491 255 255 255
0.2995193811327757 -0.0731664344166242 0.8082840001263496 255 255 255
-0.0776334019087592 0.2170234519552814 0.8625102174405690 255 255 255
0.1201714083953158 0.2822322340751766 0.8380397809916502 255 255 255
0.2967326076485719 -0.0409622252693477 0.8331735882209856 255 255 255
-0.0486947481942419 -0.1081270823817407 1.0062058724652250 255 255 255
-0.1980549426870306 -0.1266843391358770 1.0964358620032724 255 255 255
-0.0821068213045475 0.1913888551173093 1.0820090385571532 255 255 255
-0.1511488232149283 0.1914373948445052 0.8898473400916718 255 255 255
-0.0784411636112683 0.1797973183014703 1.0333656600799550 255 255 255
0.0664259038743618 -0.2052897387097617 0.9174146942673729 255 255 255
-0.0144425619215363 -0.2117008350096991 0.9639645607700393 255 255 255
0.1053749774366093 -0.1731270088135339 0.9022510750431438 255 255 255
-0.2553347947349813 -0.2467634183709129 1.1012284714149203 255 255 255
-0.1758172780798755 -0.2292726431686928 1.0595285835969446 255 255 255
-0.1764143999577774 -0.2219145241809327 1.0612898043195282 255 255 255
-0.1676510937588005 -0.2172610363905926 1.0391142981361767 255 255 255
-0.0568027856004214 -0.1926652042590044 0.9936036782218427 255 255 255
-0.0149331576586738 -0.1770628126376265 0.9695674363303497 255 255 255
0.1445558047990234 -0.1394526600915990 0.8870913188709233 255 255 255
-0.0178243683616071 -0.1723906642299063 0.9723157650360923 255 255 255
-0.3507665455240645 -0.2379000410013425 1.1566045819771347 255 255 255
-0.3737052046499714 -0.2339445827024536 1.1709966585152767 255 255 255
-0.2576036911074655 -0.1989147841791508 1.1102075112379621 255 255 255
0.2614196867321592 -0.0842668324134393 0.8292380072385055 255 255 255
-0.1769875852196119 -0.1804329037159152 1.0683044245973137 255 255 255
-0.0179452264467859 -0.1434984782680372 0.9766023327794331 255 255 255
0.0992327015272925 -0.1162036488188393 0.9185466120527195 255 255 255
-0.1778457879482414 -0.1765526228790303 1.0717787902969369 255 255 255
-0.0173573889826386 -0.1392812407400533 0.9827883235252735 255 255 255
0.0993764924613902 -0.1129324248937296 0.9164723101299914 255 255 255
0.2177602819521756 -0.0833597620733654 0.8519235962527549 255 255 255
-0.0198420558855283 -0.1291644486797104 0.9754479306103148 255 255 255
-0.3416325074743014 -0.2040693378863889 1.1650006549457430 255 255 255
-0.3501174077957485 -0.2042505178322327 1.1634787408737839 255 255 255
0.0993515410731218 -0.0977730567497421 0.9207672454252087 255 255 255
-0.2236725040604646 -0.1661373542439440 1.0902868195681890 255 255 255
0.2956202572251829 -0.0482677438383141 0.8048601067344543 255 255 255
0.2170361108275625 -0.0663804668500704 0.8569974591991576 255 255 255
-0.0620084211016172 -0.1301925408360687 1.0069845989474988 255 255 255
0.2569369717847341 -0.0566373735588678 0.8359735993862989 255 255 255
-0.1768299922963226 -0.1536821922352359 1.0709698622758981 255 255 255
-0.3879798342410608 -0.2009590405185286 1.1847217654008499 255 255 255
-0.0206199133895759 -0.1146757505366389 0.9872705927592116 255 255 255
0.1383017722716104 -0.0778612754922531 0.9022089675961844 255 255 255
0.2996463254806874 -0.0269026515566826 0.8227520385583073 255 255 255
-0.2594607070642088 -0.1504250201290246 1.1206135646802249 255 255 255
-0.1797912275959126 -0.1220087670062661 1.0677735470444187 255 255 255
-0.1593880622795432 -0.1160016044307285 1.0655261317026996 255 255 255
0.2867420586897138 -0.0040235184359045 0.8286448359377976 255 255 255
-0.2507796499412904 -0.1310977921504826 1.1214640776302036 255 255 255
0.2550405985101749 -0.0097329055894769 0.8339101128819457 255 255 255
-0.2886491813796939 -0.1383729583147670 1.1338022608165339 255 255 255
0.2934280654366805 0.0085520054535129 0.8228273705252551 255 255 255
-0.0966797249924216 -0.0829476178135840 1.0255258220869354 255 255 255
0.2337043736776003 -0.0026936718729667 0.8396738158327262 255 255 255
0.1762009861918372 -0.0148438440010903 0.8680759819009261 255 255 255
0.1153141406969853 -0.0276901408318348 0.9085056845564977 255 255 255
0.2629432437402945 0.0090317247426316 0.8076258880551642 255 255 255
-0.3362538040276579 -0.1308909879838244 1.1553345016207697 255 255 255
-0.0392063567089522 -0.0593012055156978 0.9932641704207814 255 255 255
-0.1232439947205730 -0.0766642715610377 1.0357672828619258 255 255 255
-0.3154447260394093 -0.1192757027538229 1.1651550049812451 255 255 255
-0.2460601948580199 -0.1010408392742672 1.1017254594280899 255 255 255
-0.1787369959530636 -0.0818412572088919 1.0664792974550024 255 255 255
-0.3604690577939920 -0.1247660354774895 1.1653133310640713 255 255 255
-0.3993191741871449 -0.1344569976098123 1.1956933316164147 255 255 255
-0.4087987343511814 -0.0836515626920212 1.2256422921209817 255 255 255
-0.1902326595778872 -0.0222513590281518 1.0857829786720501 255 255 255
0.2744969962016039 0.1082737224011900 0.8397120560439504 255 255 255
0.1222856345342400 0.0757501754305405 0.9248733403030296 255 255 255
-0.3419036803409718 -0.0409900140539268 1.1713755115984839 255 255 255
0.1215104507524716 0.0879152952262703 0.9284678310563018 255 255 255
-0.3984833708456410 -0.0421893984381256 1.2247593875037417 255 255 255
-0.3315810537536672 -0.0208837332843723 1.1699927811746349 255 255 255
-0.1879297766569525 0.0395002300590916 1.0968287577225384 255 255 255
0.1185804491866493 0.1306904881178310 0.9350215434120264 255 255 255
0.0779081897487683 0.1220607915819328 0.9761942619878293 255 255 255
-0.3707390935745281 0.0199470871251117 1.2132186953035280 255 255 255
-0.3614291933466554 0.0228131301326382 1.2165801684421709 255 255 255
-0.3325630608007266 0.0321350253192616 1.1818546000394097 255 255 255
-0.3417581368139282 0.0294768575323779 1.1857722480955464 255 255 255
0.1151893882860957 0.1684130140074629 0.9446929226840859 255 255 255
-0.3697901210153578 0.0359701753032513 1.2180176225642843 255 255 255
0.1156257469720483 0.1819141884746479 0.9590181924559416 255 255 255
0.1167245799878036 0.1812560670273897 0.9528445591882533 255 255 255
0.1164818604422568 0.1846387191194188 0.9499969563974100 255 255 255
0.0955961331941000 0.1792608419318455 0.9743322200005824 255 255 255
-0.3690399374186848 0.0467712084915766 1.2200679326955912 255 255 255
-0.3264239078768405 0.0578106441557011 1.1823697989258104 255 255 255
-0.0398802698676484 0.1529656409114875 1.0260572748035344 255 255 255
-0.2305393806969498 0.1042060376704415 1.1500727057571689 255 255 255
-0.1918578975072327 0.1238092018789394 1.1353392404209099 255 255 255
0.0598581499134860 0.1998630823667812 0.9954041713760670 255 255 255
0.0356413516907237 0.1971608390505182 1.0106209678633533 255 255 255
-0.1691615789644709 0.1464964267510527 1.1089574522911905 255 255 255
-0.2044614436940728 0.1375610827344409 1.1418483971454125 255 255 255
-0.3462847869479626 0.1435972204669445 1.2208266666961780 255 255 255
0.3119482857906828 0.3245959556939111 0.7254614046626866 255 255 255
0.3250581641170189 0.3301189112250702 0.7174146401447816 255 255 255
0.2962077327853905 0.3234082495232471 0.7356716151075453 255 255 255
0.2296519840791645 0.3058711724840641 0.7790199249938410 255 255 255
0.2209382394171797 0.3031765001530315 0.7733722755424450 255 255 255
0.1866826079478967 0.2992024240811340 0.8017859835172141 255 255 255
0.2274304419901831 0.3095594069650760 0.7701684644262246 255 255 255
-0.3253966687183407 0.1583536743700922 1.1903918101018363 255 255 255
0.1855436447957377 0.2979465648512896 0.7938685097523490 255 255 255
0.2289756039665143 0.3113174875473064 0.7587932854517607 255 255 255
-0.3524098911892857 0.1532162317958949 1.2080220145419354 255 255 255
0.2274349466423757 0.3116901001885921 0.7610763366664255 255 255 255
-0.3569735225011925 0.1520509584733549 1.2106316587276069 255 255 255
0.2803160646940555 0.3263250996036309 0.7135878860929274 255 255 255
-0.3755263046886688 0.1479100851025148 1.2237934501921242 255 255 255
0.1553852182059074 0.2936202571043962 0.8078272482031643 255 255 255
-0.3801197359469244 0.1475732060966641 1.2194228163292102 255 255 255
0.2051769539099570 0.3077829408291946 0.7665729817246554 255 255 255
0.2520682239007854 0.3208314336086087 0.7297400472989430 255 255 255
0.1704599771556041 0.2993846355966656 0.7871394156677537 255 255 255
0.2779725755108799 0.3299413419880945 0.7110096624378635 255 255 255
0.0695690157584412 0.2734925221487048 0.8658737648673833 255 255 255
0.3028404973071175 0.3376584058767537 0.6825508592366911 255 255 255
0.2051398266806514 0.3114508158390219 0.7637277934824889 255 255 255
0.1035562026752999 0.2836773196298084 0.8398491200918650 255 255 255
-0.3846858486065337 0.1493208350756450 1.2115109485559898 255 255 255
0.0696252526966781 0.2747343066647652 0.8620943246040262 255 255 255
0.1060168360165541 0.2843695226846696 0.8319784235953316 255 255 255
0.2723951953786248 0.3314042836569409 0.7041839621083485 255 255 255
0.0695880100388724 0.2755489091088545 0.8591021299945218 255 255 255
0.1252762346043697 0.2901033253135774 0.8149285406920312 255 255 255
0.1358762010004302 0.2934603743959884 0.8042463704328803 255 255 255
0.1422090079475500 0.2949223661925864 0.8009737072381569 255 255 255
0.0661603705896718 0.2709890043170125 0.8375323252338110 255 255 255
0.0611988776633758 0.2744366226857720 0.8561855680505959 255 255 255
0.1464683545177081 0.2973113024597676 0.7907510629449805 255 255 255
0.0570646026795174 0.2742638841798701 0.8646622080436455 255 255 255
0.3080190072396922 0.3479912711148780 0.6893761767750368 255 255 255
0.2194956086982209 0.3194389803470727 0.7321786037882361 255 255 255
0.2562884832422334 0.3291799312266672 0.6999252112231105 255 255 255
0.0707012528869155 0.2761369103901725 0.8351637768755793 255 255 255
0.0492703141308564 0.2717419596252819 0.8525115887833268 255 255 255
0.1353116346324130 0.2966906937192122 0.7945777290783220 255 255 255
-0.3221705534390331 0.1705389727196849 1.1406273849467636 255 255 255
0.2630481858674187 0.3327757995006042 0.6895674708285799 255 255 255
0.2952442901367140 0.3411037648289974 0.6640645603940744 255 255 255
0.1218883628279954 0.2929845271458866 0.7985185931678513 255 255 255
0.2170510427358217 0.3193829745022025 0.7211896709413281 255 255 255
0.2333934185682907 0.3237295781777778 0.7093210374237913 255 255 255
0.0731944115432537 0.2818997148893789 0.8350546696453547 255 255 255
0.1326265583477024 0.2973283402622111 0.7856200181110800 255 255 255
0.0577476521773548 0.2782614423521323 0.8456632476793837 255 255 255
0.0445554533767982 0.2740039025741847 0.8498190187293879 255 255 255
0.1297102573966100 0.2978901534706839 0.7872200936142519 255 255 255
0.1069526400209275 0.2911887108729452 0.8073261842799924 255 255 255
0.2145378346851459 0.3211888404621277 0.7160044332728948 255 255 255
0.2372748048342448 0.3259977651246126 0.6912594583952187 255 255 255
0.0711097797664060 0.2831240646769255 0.8294795003928277 255 255 255
0.0641640984444152 0.2814593107770884 0.8345573670620139 255 255 255
0.2495786481798032 0.3320644734974945 0.6887649125237156 255 255 255
0.1895599023039782 0.3159290410079216 0.7298779721511739 255 255 255
0.2348622040160588 0.3285530568525523 0.6971768003198373 255 255 255
-0.3526156930698532 0.1670583991056502 1.1452076240167113 255 255 255
0.2677963084258366 0.3375889351520578 0.6607140334502709 255 255 255
0.1128940946217076 0.2957236763373510 0.7875556436907005 255 255 255
0.0734710289871190 0.2862007688694592 0.8182610097963448 255 255 255
0.1290685205666540 0.3003136091549190 0.7680742685515147 255 255 255
0.1385058249330946 0.3046168828859503 0.7618730225054424 255 255 255
0.1882543411876618 0.3190693203836883 0.7292615372760185 255 255 255
-0.1570477303941340 0.2247245067813222 0.9957444438077199 255 255 255
0.0662543484073419 0.2857109065303662 0.8157727097259633 255 255 255
0.1285600265278588 0.3001709718993886 0.7605505002571877 255 255 255
0.1112519809109820 0.2982057450421625 0.7828899632964070 255 255 255
0.1356794231487939 0.3036240842030136 0.7546481745800655 255 255 255
-0.1563834972007934 0.2259773871472477 0.9916258601068715 255 255 255
0.2308855183199530 0.3310064313591878 0.6765628911411090 255 255 255
0.2692985653410815 0.3420410992088230 0.6551501363103345 255 255 255
0.1495395475558605 0.3082366221899900 0.7434241827175764 255 255 255
0.0653423307473098 0.2866264743860789 0.8117854708175298 255 255 255
0.0218314919043543 0.2741829564884988 0.8465342906506468 255 255 255
0.2341840181895609 0.3302228833834753 0.6642925244966955 255 255 255
-0.1951537800470184 0.2169310304439924 1.0163778167138622 255 255 255
-0.1605554525472730 0.2273791594195682 0.9890927328866703 255 255 255
0.1431460908004993 0.3085021915487740 0.7437408632119773 255 255 255
0.2280251593873821 0.3320196482749660 0.6790293787169093 255 255 255
-0.1935064728492251 0.2184484034710129 1.0139968959932784 255 255 255
0.1725162662262720 0.3169323608799228 0.7219364875635037 255 255 255
0.2420065765330179 0.3372820608423659 0.6687819067018537 255 255 255
0.1942050405843014 0.3231561420650491 0.6975337578964491 255 255 255
-0.2099474431233044 0.2132180016179994 1.0176694619580489 255 255 255
0.0875327818962539 0.2957716862976092 0.7838330679486383 255 255 255
0.1313501923732368 0.3079543020874613 0.7503163090034732 255 255 255
0.1645792777044255 0.3151294470342819 0.7134507324214528 255 255 255
-0.2123888817493373 0.2150537355042346 1.0196654432818804 255 255 255
-0.2239656033048583 0.2118578038649002 1.0264955516577459 255 255 255
-0.1957334875490666 0.2197100179514457 1.0048609926239926 255 255 255
0.0694630430603986 0.2920334433700211 0.7911014229264395 255 255 255
-0.2382092669419977 0.2095046652383343 1.0360538850440839 255 255 255
0.0597695439495531 0.2891478607849356 0.7966236830317173 255 255 255
0.2126513213999637 0.3317309461749223 0.6776558490866189 255 255 255
0.2123918912014808 0.3319399985906086 0.6746162931454833 255 255 255
-0.2154028797411831 0.2146410883493513 1.0057164587525502 255 255 255
0.0424171049054944 0.2852818318486730 0.8042324187646153 255 255 255
0.2234881731770493 0.3354902843635594 0.6605636109292048 255 255 255
-0.2054352994910413 0.2191328626598876 1.0016554145400915 255 255 255
0.0019067608708587 0.2742177937557826 0.8293154525192734 255 255 255
0.0293878650441393 0.2833903234073496 0.8165869006974447 255 255 255
0.2264805507132444 0.3371757407140228 0.6589489171463363 255 255 255
-0.0774636286992987 0.2423705693700229 0.8356021098652171 255 255 255
-0.2574140334325232 0.2066998624158085 1.0419823506352062 255 255 255
-0.2386687395222502 0.2120805117815743 1.0262963976258130 255 255 255
-0.2234460910767080 0.2156824238768404 1.0112424774078530 255 255 255
-0.2607833186984498 0.2070516060071075 1.0409751446213571 255 255 255
0.1214565610274971 0.3106023327685031 0.7377957616491182 255 255 255
0.0782414234486071 0.2976545418640164 0.7673017143416163 255 255 255
-0.2869136124424587 0.1999826963945659 1.0604557731779121 255 255 255
-0.2796865187711663 0.2018873333880329 1.0530039002017997 255 255 255
-0.2402075193736601 0.2122724675549578 1.0196262640354936 255 255 255
-0.2513437411281938 0.2098132148106382 1.0307777521317814 255 255 255
0.1406646435658629 0.3154225805249895 0.7175617527474820 255 255 255
-0.1737323575680261 0.2307942856192895 0.9639971006287347 255 255 255
-0.2644795133795652 0.2075518973533530 1.0399414985630466 255 255 255
-0.2437191108013774 0.2129438133500159 1.0235801887589311 255 255 255
-0.0658793241027196 0.2518910956934808 0.8364108022496906 255 255 255
-0.2856681118702422 0.2014524168739333 1.0517965118751995 255 255 255
0.0302824752386082 0.2862618519291011 0.7965623870156842 255 255 255
0.1521354177039798 0.3205029451803121 0.7055537965674482 255 255 255
-0.2486098119474258 0.2123449773485611 1.0217379844202870 255 255 255
-0.0115760885019158 0.2760820877986605 0.8291191745882234 255 255 255
-0.0010202388267100 0.2783778986651786 0.8215540005118793 255 255 255
0.0822044903960091 0.3006808604687397 0.7536280653905507 255 255 255
0.1722913448483183 0.3261049347189404 0.6844755065089072 255 255 255
-0.2664686457731147 0.2074888742023475 1.0334447234819493 255 255 255
0.0107689674723084 0.2810798162419130 0.8046601195685135 255 255 255
0.0267859211493535 0.2867486201223199 0.7994226408567702 255 255 255
0.0752128833764492 0.3003080330605733 0.7561668756385928 255 255 255
0.0715184823701875 0.3000296938329923 0.7612681245106372 255 255 255
-0.2860659241993657 0.2030558001636038 1.0445486261507773 255 255 255
-0.2918659776997030 0.2024754098672474 1.0514090677641175 255 255 255
-0.2690263556008752 0.2084117458547796 1.0338767872474826 255 255 255
0.0472727311014327 0.2942618271755750 0.7771444158330253 255 255 255
-0.1824151012932207 0.2202161612146669 0.8999072286299277 255 255 255
-0.2258686251115094 0.2198056050396235 0.9937816497178817 255 255 255
0.0323133660155754 0.2897628725282875 0.7872561646947833 255 255 255
-0.1783638421031917 0.2334018537958591 0.9526752762864423 255 255 255
0.0586680039257059 0.2958472656350255 0.7558893229930956 255 255 255
-0.2783989054069487 0.2068748612488598 1.0315170237788109 255 255 255
-0.2704113521215676 0.2093522413129554 1.0284003036135521 255 255 255
0.1675643175548007 0.3276812999763026 0.6743051374508422 255 255 255
-0.2338021393215381 0.2182883411947039 0.9920979844488391 255 255 255
-0.1823359712945656 0.2227515854271028 0.8999726049146615 255 255 255
0.0649603789318656 0.3000337197524465 0.7547434933777524 255 255 255
-0.2872227232771234 0.2059127384133213 1.0377040774176045 255 255 255
-0.2801037848107004 0.2072976103592934 1.0251851175282436 255 255 255
-0.2088987429320577 0.2264279618290699 0.9680373688411104 255 255 255
0.1152798929371173 0.3146043788917581 0.7125854699254504 255 255 255
-0.0076323252547876 0.2805818373847124 0.8047923691411913 255 255 255
0.0829530448314504 0.3043357101539392 0.7317884459484958 255 255 255
-0.2538949946717119 0.2154965727852907 1.0067405480505633 255 255 255
0.0164660375138483 0.2876040440150140 0.7870683935945104 255 255 255
-0.2943450354440724 0.2049157686959795 1.0361232352542729 255 255 255
-0.2160978593713847 0.2258908674153373 0.9718035220569476 255 255 255
0.0012454501912289 0.2852044325557459 0.8003112013991924 255 255 255
0.1477767045395222 0.3257236907419623 0.6756151343522427 255 255 255
-0.0097700914405348 0.2836319993518970 0.8013154767486554 255 255 255
0.0126217784682023 0.2906027563347056 0.7850181679454118 255 255 255
-0.2447260615403462 0.2205002574385215 0.9852199992264552 255 255 255
0.1775297464830690 0.3353979511828635 0.6449504965873203 255 255 255
-0.2762415151465305 0.2127361412419422 1.0087239720329748 255 255 255
0.0572840515827107 0.3031633371402833 0.7437668130437487 255 255 255
0.2020143932693124 0.3428443276588649 0.6284367630777625 255 255 255
-0.1964400057975055 0.2341372458691637 0.9409563852407565 255 255 255
0.0605477523401170 0.3046111040820492 0.7401131145568751 255 255 255
-0.3007642665847801 0.2071169132460575 1.0264564494984825 255 255 255
-0.2199383480738870 0.2293824033026475 0.9646952268829532 255 255 255
0.0797745360095243 0.3095404155389128 0.7203941948083736 255 255 255
-0.2832071371842773 0.2117531713572962 1.0107250244510659 255 255 255
-0.2795249544411469 0.2130877769713493 1.0052755623420104 255 255 255
0.1098069571338982 0.3182422771101265 0.6924337061770087 255 255 255
-0.2502025205482594 0.2211878359078217 0.9817261882174630 255 255 255
-0.1874214774556853 0.2387529581418240 0.9323770185854428 255 255 255
-0.0126081707957197 0.2813819714909137 0.7763439575352531 255 255 255
-0.0092575655274234 0.2868054680566032 0.7876176811956577 255 255 255
0.1562574887729147 0.3325726229753712 0.6555169772213740 255 255 255
0.1934674401950467 0.3423142482537012 0.6256787126928653 255 255 255
-0.2711519413788377 0.2163423725229183 0.9948507362094965 255 255 255
0.0267654155336352 0.2966188510715000 0.7542412508392911 255 255 255
0.1315454068621538 0.3252097483804013 0.6698802766440295 255 255 255
0.1464287170144782 0.3293407465880662 0.6567728176237324 255 255 255
-0.1917628209686524 0.2385042364945145 0.9293267499357327 255 255 255
0.0410941666897298 0.3008282306555152 0.7388276153247304 255 255 255
0.0411182825671528 0.3011810207790973 0.7424596656894025 255 255 255
0.1191268035567801 0.3234215719360433 0.6793923171071810 255 255 255
-0.0011117301473682 0.2904887985136557 0.7786366711547881 255 255 255
-0.1459293831531667 0.2510035347767388 0.8868711334360020 255 255 255
-0.1011240007192535 0.2647615901567768 0.8570871163990743 255 255 255
-0.0204706711071054 0.2841713279517144 0.7814435287431269 255 255 255
0.1506152264146028 0.3328464793594139 0.6526456979341788 255 255 255
-0.2615418864675245 0.2208385231886467 0.9817991977779386 255 255 255
-0.2035773273402661 0.2363683869850384 0.9348956760358558 255 255 255
0.0733213875884697 0.3080831138586149 0.6980438393494364 255 255 255
0.1881004211627513 0.3417087807839287 0.6181991223169536 255 255 255
-0.2234088723864929 0.2309036546416472 0.9464200747282785 255 255 255
-0.1397250341175187 0.2540825791415935 0.8821749991986918 255 255 255
-0.0097511348089441 0.2889366984255961 0.7782763809171698 255 255 255
0.1700977718751364 0.3383142742739897 0.6362411950555273 255 255 255
-0.2394065772734080 0.2270063592532159 0.9590792606672931 255 255 255
-0.0796763875028148 0.2699953564370157 0.8320188281678051 255 255 255
-0.2557367265803574 0.2229485239393800 0.9705772957473671 255 255 255
0.0363911305647218 0.3013555377713963 0.7357354247404668 255 255 255
0.0983891912735189 0.3177578612187766 0.6838237464184171 255 255 255
-0.0936533219777225 0.2670709306310943 0.8447411291285327 255 255 255
-0.0088531875235391 0.2910442378196241 0.7750629404563461 255 255 255
-0.0192007213785601 0.2866782037766047 0.7779893060093421 255 255 255
-0.0056998149606535 0.2906323717623502 0.7669154326118823 255 255 255
0.1611624047503071 0.3361854263617436 0.6338263888865123 255 255 255
0.1307460351407101 0.3280246943783203 0.6603044700501925 255 255 255
0.1864821390623534 0.3432157685000989 0.6177151682580430 255 255 255
-0.2111698916931128 0.2354306973540414 0.9350343602900434 255 255 255
0.0232345716263769 0.2990114436823958 0.7435206772869360 255 255 255
0.0655315498817792 0.3097066164115105 0.7076015071104917 255 255 255
0.1106375406910889 0.3231627628541873 0.6733452965381428 255 255 255
0.1208174708932930 0.3259935665753950 0.6672786036882830 255 255 255
-0.0441138761302238 0.2814692643362946 0.7977847289159481 255 255 255
0.0166618103448233 0.2972992193453639 0.7466200331194894 255 255 255
0.0782829184124125 0.3144048093235572 0.7004357828535550 255 255 255
0.1614550059850517 0.3383358110904453 0.6370914380042674 255 255 255
-0.2294250948988075 0.2316727602891624 0.9460179419461030 255 255 255
-0.2056574351021618 0.2382740928106042 0.9264706603381931 255 255 255
0.1794677075179489 0.3427350095754393 0.6166870506548268 255 255 255
-0.1509588530105983 0.2529963606945600 0.8815509164581226 255 255 255
-0.0129803879571142 0.2896616709928432 0.7702373613105777 255 255 255
0.0624734387781736 0.3112797235188882 0.7126048333010164 255 255 255
-0.1776747523611739 0.2459843785378233 0.9014710276972115 255 255 255
-0.0773525485466333 0.2727009088472645 0.8181622536271629 255 255 255
0.0893208694316181 0.3184529058779035 0.6872710424335288 255 255 255
-0.1875488003930559 0.2435810475100206 0.9068177043539722 255 255 255
-0.1322158537038733 0.2571572316309814 0.8600349452997200 255 255 255
-0.0578844739906645 0.2788308024421040 0.8038006523334098 255 255 255
0.0702860987181353 0.3129484986405231 0.7003952819493460 255 255 255
0.0804387955870709 0.3161093919911122 0.6904111613320656 255 255 255
0.0704950158437274 0.3127549084647296 0.6967452612864036 255 255 255
-0.1726743617609225 0.2479532774246865 0.8943747001807332 255 255 255
0.0118116900833503 0.2976044979470398 0.7440439236604135 255 255 255
0.1624551312938003 0.3396084713484981 0.6252955163679976 255 255 255
-0.1833562837026008 0.2453033517200680 0.9002803267069073 255 255 255
-0.1737280698791777 0.2455240793229825 0.8802949517140650 255 255 255
0.0214697439785461 0.3009019215719064 0.7387189519224986 255 255 255
0.1546805719227393 0.3368765926068100 0.6282720053518540 255 255 255
0.1818679514628925 0.3465093345993525 0.6161522554381937 255 255 255
-0.2111456150137654 0.2376851565865219 0.9218131538773982 255 255 255
-0.2065648510552052 0.2395745929246349 0.9193936036146475 255 255 255
0.1463491702881150 0.3355494400495580 0.6360803730596682 255 255 255
-0.0853477676915375 0.2721873248807789 0.8197228251492028 255 255 255
-0.0792396573088654 0.2734673953487095 0.8149810536818172 255 255 255
0.0596774228808465 0.3111501880867253 0.7041495759023055 255 255 255
-0.1458444368959904 0.2593291324700783 0.8789887190938762 255 255 255
0.1563377945365492 0.3384543161376223 0.6264820781531437 255 255 255
-0.1783828566714813 0.2468291998047900 0.8899212951150002 255 255 255
-0.1835152441179915 0.2475086702602312 0.8957806086881970 255 255 255
-0.1653607648027293 0.2515187039565387 0.8847713576044534 255 255 255
0.0759437047994744 0.3164060125842578 0.6880582014093788 255 255 255
-0.0079411075433216 0.2938385604934748 0.7537323181003344 255 255 255
0.0231666293904471 0.3031526016568828 0.7322828819864995 255 255 255
-0.1812622142110731 0.2475325684743614 0.8928140206530646 255 255 255
0.1317935950318700 0.3332021641594949 0.6443945210460960 255 255 255
-0.2463013746188292 0.2302141551864860 0.9452379280694174 255 255 255
-0.2315747404647439 0.2340127927789268 0.9325215843150279 255 255 255
-0.0340104289107526 0.2867685850683648 0.7721666824307141 255 255 255
-0.1180244680026945 0.2649371972856027 0.8391194951133940 255 255 255
-0.0992215600879067 0.2700211359830078 0.8252129657971548 255 255 255
-0.0364302682797808 0.2870869442402078 0.7741801784391154 255 255 255
-0.0291995664202194 0.2887342407480262 0.7693529631517286 255 255 255
-0.1678190763136156 0.2516859217749010 0.8788439303077400 255 255 255
-0.0440843333841414 0.2853498404426276 0.7812095372189471 255 255 255
0.0420539890614524 0.3091072737310636 0.7125380820486633 255 255 255
0.1583053841305908 0.3404431360971030 0.6172544741998314 255 255 255
0.0723155563815423 0.3174521529708121 0.6863969479967784 255 255 255
0.1229907651484474 0.3322113251095939 0.6487658507891751 255 255 255
-0.1650655679959394 0.2529725051509470 0.8756844079457125 255 255 255
0.0008410676272215 0.2976269969497349 0.7409586093458462 255 255 255
-0.0012303428678049 0.2975136824619691 0.7448677756524993 255 255 255
0.0195095489016701 0.3030451187347349 0.7279207487391268 255 255 255
0.0442231697131952 0.3101161044609229 0.7090873064346770 255 255 255
-0.0188197829481282 0.2925395771741162 0.7569105892208157 255 255 255
0.0117019615862333 0.3006943314449284 0.7311522469056086 255 255 255
0.0730482516775774 0.3174826280034519 0.6821495745143622 255 255 255
-0.2379849569772112 0.2334401349814907 0.9314261188776030 255 255 255
0.1141602452728954 0.3298882004134276 0.6511696109683598 255 255 255
-0.2221967167776568 0.2367724340582109 0.9113740961546237 255 255 255
-0.0413576066671535 0.2864899445337876 0.7689146640407074 255 255 255
-0.0513775489965500 0.2837522796495069 0.7775037716305881 255 255 255
-0.0134487093236286 0.2947717053564267 0.7478669701750664 255 255 255
0.0471568660972075 0.3113248732538354 0.7039972675735306 255 255 255
-0.2277586550188788 0.2377761669280680 0.9218301821548458 255 255 255
-0.0541886831043281 0.2839897984397803 0.7806109609058702 255 255 255
0.0330434576370031 0.3072372826692984 0.7092588886438147 255 255 255
0.0017718679961156 0.2990808303299595 0.7351514366911434 255 255 255
-0.0219474419157057 0.2935819829225310 0.7558170106377999 255 255 255
-0.0038839075390253 0.2978643952349156 0.7381567474660136 255 255 255
0.0441783228839778 0.3122140904343733 0.7042898777658015 255 255 255
0.0620115596460415 0.3160384656364599 0.6872854949053044 255 255 255
0.0623799292786025 0.3156681266598298 0.6846365650312212 255 255 255
0.1579949847148967 0.3421847730927032 0.6076904685037610 255 255 255
-0.1794685831069960 0.2520509047135517 0.8858546991110332 255 255 255
-0.0293588639643314 0.2897399373359111 0.7573074050221553 255 255 255
0.0086618401093075 0.3017048202945662 0.7291405721106430 255 255 255
-0.0519902689202336 0.2863036698523085 0.7791851670588548 255 255 255
-0.0406177697264152 0.2879603884001192 0.7651703751157761 255 255 255
-0.0252905948087951 0.2925434850457025 0.7573002564314861 255 255 255
0.1446457489031587 0.3393239824515693 0.6177312443047551 255 255 255
-0.0764464384888388 0.2783583216460030 0.7917788668991967 255 255 255
-0.0041204730787361 0.2984807791551296 0.7352866281732984 255 255 255
0.0002499805168839 0.2998732118082632 0.7329832647729262 255 255 255
0.0981549503986945 0.3273944073071788 0.6559306431783714 255 255 255
-0.1576590232336397 0.2573008761283471 0.8582648403574042 255 255 255
-0.1398021385687738 0.2615919898503360 0.8414248412664964 255 255 255
0.1424608553741731 0.3400277809782821 0.6194869567611194 255 255 255
0.1294052727367045 0.3363868089061253 0.6315327289852775 255 255 255
-0.0522677896528627 0.2862875129000013 0.7723292696227695 255 255 255
-0.1997396738380002 0.2463593422041019 0.8894710954242711 255 255 255
0.0344699631860239 0.3097374487704854 0.7016780537645229 255 255 255
0.0700412588437551 0.3194859004805517 0.6740958147445948 255 255 255
-0.1681814359612668 0.2556989235070013 0.8647874794243435 255 255 255
-0.0860306477155621 0.2776843769884236 0.7979875155144258 255 255 255
-0.0912483846411192 0.2759425434191751 0.8021576578251075 255 255 255
-0.0437716520799327 0.2889520367402394 0.7657336966325903 255 255 255
-0.0414781452165789 0.2897741147127935 0.7632038525402320 255 255 255
-0.1073157253996877 0.2719628146055237 0.8139879241477646 255 255 255
-0.0854493027825090 0.2773886013788811 0.7948367835235359 255 255 255
0.0203708779720326 0.3067517238131301 0.7111339803471179 255 255 255
-0.0530973728983746 0.2862616348974409 0.7662515441897781 255 255 255
0.0264532672106430 0.3083595485987023 0.7032145945901460 255 255 255
0.0544595619016039 0.3170002364267535 0.6841211144907677 255 255 255
0.0471443992358545 0.3145948744078044 0.6886800564125029 255 255 255
0.1264557534922019 0.3356631635942797 0.6214638279072036 255 255 255
0.1357440422134690 0.3388881012005998 0.6171775259352117 255 255 255
0.1383397658872418 0.3396098953319697 0.6143497357463765 255 255 255
-0.0777894935354437 0.2803250562443664 0.7863449266374252 255 255 255
-0.0363819241055516 0.2920250753370297 0.7536764838643286 255 255 255
-0.0214650727468531 0.2963496590993731 0.7432534159341255 255 255 255
0.0345386305609701 0.3104244182814586 0.6981245729291432 255 255 255
-0.2091774172318797 0.2453057119306923 0.8907140660663817 255 255 255
-0.0350551088397637 0.2922457889774459 0.7509645504941651 255 255 255
-0.0428621579618627 0.2901639475526236 0.7577583566488659 255 255 255
0.0913555379976634 0.3273006116522690 0.6515539321802053 255 255 255
0.0829459833138646 0.3245539666140811 0.6577331080508397 255 255 255
0.1156865157301503 0.3340798158734470 0.6307187190077741 255 255 255
0.0132609082028949 0.3063470616902908 0.7138965419140817 255 255 255
0.0135991770291639 0.3055113752958798 0.7081780267306561 255 255 255
0.0864710017387162 0.3266933351004768 0.6546328271226383 255 255 255
0.0915221462739542 0.3274756606978348 0.6474853987672315 255 255 255
-0.1217127156161091 0.2693697128849788 0.8182939220001764 255 255 255
-0.1005421844748238 0.2748218652882808 0.8006117670403801 255 255 255
0.0474740058544434 0.3157214577500396 0.6808854214598696 255 255 255
-0.1627825561720000 0.2591013712611003 0.8534999720841254 255 255 255
-0.1537270734836058 0.2614883420983762 0.8431861761442878 255 255 255
0.0416967570672155 0.3138623297666121 0.6855423174224711 255 255 255
0.0364180224577941 0.3133150623713843 0.6920945058111789 255 255 255
0.0544410788794991 0.3179803755266271 0.6764145276478564 255 255 255
-0.1521297213325892 0.2618021124876315 0.8406208750930069 255 255 255
-0.1205979501266885 0.2700772325469067 0.8154132581052398 255 255 255
-0.0742413466096501 0.2829279775787334 0.7784040765272655 255 255 255
0.0126355165760299 0.3072805270727064 0.7108832817372157 255 255 255
-0.0046915188250161 0.3014402707575448 0.7209878175331692 255 255 255
-0.0149249947903165 -0.2197562943371245 0.9638480619660079 255 255 255
-0.0118361315455857 -0.2074068664682296 0.9552576091339482 255 255 255
0.2613962434537331 -0.1065005390106769 0.8226393102874865 255 255 255
-0.0614038535147854 -0.1217770654845377 1.0090705266072439 255 255 255
0.1381449518520697 -0.0630527817319821 0.9117466127396310 255 255 255
-0.0232296169936728 -0.0858106327604018 0.9862996432373174 255 255 255
-0.0587682164244301 -0.0922126098330897 1.0029135176504806 255 255 255
0.1930069037565207 -0.0210909278663600 0.8384907299037296 255 255 255
0.2332310782003055 -0.0017093644636139 0.8442465785076556 255 255 255
-0.0552541901878758 -0.0567473491494299 1.0000829266342230 255 255 255
-0.3881337777355549 -0.1339669278384931 1.1900134201307662 255 255 255
-0.4067490864693575 -0.1169958993647384 1.1972777698136738 255 255 255
-0.3029840234292847 -0.0900491143203337 1.1392089003299368 255 255 255
0.1131918323261452 0.0371415245364820 0.9214992145343709 255 255 255
-0.3671395523125018 0.0192797226837458 1.2135529191451724 255 255 255
-0.3689706687267407 0.0467053227900061 1.2202604537937223 255 255 255
0.2617452356183239 0.2300399235329247 0.8891774998050670 255 255 255
-0.1945963825307873 0.1238605682014806 1.1220394629566890 255 255 255
-0.1956781317469807 0.1387522500093354 1.1315629322096172 255 255 255
-0.2192746350704935 0.1422933170113616 1.1409985223632084 255 255 255
-0.2725307164813451 0.1303742347772161 1.1761299429212713 255 255 255
0.2303712453231297 0.2973481890757297 0.7875609653610387 255 255 255
0.1741582112077107 0.2955270485417174 0.8080924231080826 255 255 255
0.1211398563204729 0.2799503163625203 0.8343255821442613 255 255 255
-0.3400516611481519 0.1560482654312383 1.1995670867241692 255 255 255
0.1346378572783995 0.2914120741679795 0.8192388252938752 255 255 255
0.1213207388538642 0.2905823360986235 0.8183178334518484 255 255 255
0.1617773175521116 0.2996667761487029 0.7788996648830526 255 255 255
-0.3504108575352149 0.1644459958546645 1.1763891737886958 255 255 255
-0.1710101446696841 0.1922581430148118 0.9050475015291717 255 255 255
-0.1676026615998745 0.2133641674001722 1.0036323468369910 255 255 255
0.1694278606225499 0.3076118606848270 0.7572053148555788 255 255 255
-0.1826994533743598 0.2200683229046545 1.0065438485478175 255 255 255
0.1267255250214152 0.3048193678112341 0.7567410504672401 255 255 255
0.2663626377904404 0.3441830466353266 0.6554339770069105 255 255 255
-0.1951349197153489 0.2184523856640330 1.0137130037574131 255 255 255
0.1693655673638652 0.3179167321413665 0.7162620658516996 255 255 255
0.2460695159463784 0.3413326582374088 0.6520810083540026 255 255 255
-0.2472976270747567 0.2050127043004417 1.0333531643794229 255 255 255
-0.3675961152282889 0.1763382166002677 1.1025026108273763 255 255 255
0.0022302592562484 0.2790368164925336 0.7988735797741686 255 255 255
-0.2618924862533722 0.2111688553602362 1.0211633889913800 255 255 255
-0.2375939681050738 0.2175303553165655 0.9933769829394237 255 255 255
-0.2380885960260875 0.2202512132826993 0.9902657804460526 255 255 255
-0.0436275530169308 0.2732448817532116 0.8312492968068246 255 255 255
0.1298039833770179 0.3207641443925220 0.6882886114788511 255 255 255
-0.2037135694888050 0.2331792735139882 0.9446236679969857 255 255 255
-0.0735014265281055 0.2722368077883774 0.8219822463182389 255 255 255
0.1287873928789547 0.3294022888143864 0.6716964228016972 255 255 255
0.0632288211241230 0.3115273949762098 0.7085740055257359 255 255 255
0.0741815589462198 0.3146595881473098 0.6973144771029840 255 255 255
-0.1009111378659044 0.2694685425863668 0.8289518064898749 255 255 255
-0.0170703509286252 0.2923415759869599 0.7607140557207082 255 255 255
0.1069887849321791 0.3283819010464910 0.6525891794090626 255 255 255
-0.1649471530961826 0.2563747282679976 0.8701329779597717 255 255 255
-0.0818541533388952 0.2777511453902850 0.7984151214230790 255 255 255
-0.0411272257509534 0.2892392992366037 0.7600527775238568 255 255 255
-0.0976063182206843 0.2745672120176579 0.8067072391862915 255 255 255
-0.1762502666254022 0.2534584122102284 0.8642616734468422 255 255 255
-0.0262873637048306 0.2941889493532086 0.7481756390159888 255 255 255
0.2264548698855844 -0.1645768596773532 0.8312622378930614 255 255 255
-0.0150369168008853 -0.1991457875012176 0.9671515411263447 255 255 255
0.1485402819073385 -0.1640018132852485 0.8765225963767154 255 255 255
0.3376652367281125 -0.1132628583729454 0.7698884303968493 255 255 255
-0.3350584124262257 -0.2544460333866326 1.1392424110139840 255 255 255
0.2215989803408105 -0.1150960017507245 0.8444709893980886 255 255 255
-0.2589394067671713 -0.1507024969820364 1.1204483100206875 255 255 255
-0.2360983262264522 -0.1358188376781964 1.1107728193617694 255 255 255
-0.1932595117287885 -0.0910786585831267 1.0778443773643467 255 255 255
-0.3030572173279933 -0.0433873427354119 1.1482876264432900 255 255 255
0.1215336663723541 0.0866706909824275 0.9281121827488530 255 255 255
0.1054987838088631 0.1670743868224742 0.9641141677500158 255 255 255
0.1121010538605880 0.2008330794742261 0.9527782513355896 255 255 255
0.2798901204582651 0.3223663093104885 0.7418231336122392 255 255 255
0.1868489279030463 0.2992430587544797 0.8020699441439825 255 255 255
0.2190737807493288 0.3113244929057665 0.7666501335942806 255 255 255
0.3014054159174853 0.3335850217461016 0.6952753343000500 255 255 255
0.2953665903071681 0.3347441490359437 0.6859140737250704 255 255 255
0.1431601385399386 0.2935337204214581 0.8045799290460315 255 255 255
0.3024750118092419 0.3393602595310858 0.6761452190567976 255 255 255
0.1519638912694976 0.3015222598380269 0.7778121787814687 255 255 255
0.0724925299065609 0.2884642499869741 0.8096438440035572 255 255 255
0.0493290794817689 0.2838314167286704 0.8160924307261652 255 255 255
-0.1614273110774427 0.2276012696230740 0.9843000781047984 255 255 255
-0.2163002528957900 0.2129410407486136 1.0248508786201143 255 255 255
-0.2041792330119061 0.2173522650630118 1.0145323795018082 255 255 255
0.1788790872613655 0.3226447554381995 0.6917604797915478 255 255 255
0.0001901127585349 0.2762104961958816 0.8290851023789791 255 255 255
-0.2235929961170338 0.2203202013603254 1.0212415179952044 255 255 255
-0.2757071094189198 0.2039072984808108 1.0465328412884789 255 255 255
0.1659733311541267 0.3239483313003295 0.6885867732607431 255 255 255
-0.1866925678787270 0.2304919550584854 0.9621159520312990 255 255 255
-0.2784601045334156 0.2066824138559902 1.0318993508979375 255 255 255
-0.1899266104709039 0.2317010291755430 0.9534861545067130 255 255 255
-0.1946183536093944 0.2312389579894027 0.9570489921146574 255 255 255
0.1846561789349348 0.3338882527293672 0.6505082441942047 255 255 255
-0.0756427736102942 0.2648234925312868 0.8486289771501258 255 255 255
0.1959362466063901 0.3411191868791477 0.6319205590777606 255 255 255
0.0206848497303327 0.2930868359285739 0.7660696421985186 255 255 255
0.0281128216120710 0.2963339496567521 0.7602952005897468 255 255 255
-0.0285448440223401 0.2808667197140959 0.8041752064788827 255 255 255
