ply
format ascii 1.0
element vertex 683
property double x
property double y
property double z
property uchar red
property uchar green
property uchar blue
end_header
0.4558858410709217 -0.7145891582584982 0.4647746088497991 0 255 0
0.3047932344272136 -0.7118254321830964 0.4328074922628837 0 255 0
0.1491718150762031 -0.7121701011168623 0.4145128505084787 0 255 0
-0.0060868591538704 -0.7171851798839278 0.4109295881994511 0 255 0
-0.1612938687284426 -0.7248902044232590 0.4203404183189065 0 255 0
-0.3158402619901050 -0.7364355105176720 0.4440174803420509 0 255 0
-0.2052719209006704 1.7818425056239926 0.2759779708914866 0 255 0
-0.4412037348946891 1.7702270702777494 0.2924534353125496 0 255 0
-0.6695590174309307 1.7535409463642249 0.3275425062028948 0 255 0
-0.9029106869673107 1.7301600691403043 0.3852603373852260 0 255 0
-1.1165312771374181 1.7066746133257165 0.4633987253819309 0 255 0
-1.3235530257767141 1.6764326816698820 0.5596177549205537 0 255 0
-1.5278533486389976 1.6432977486905833 0.6815898125242339 0 255 0
-1.7110681372223497 1.6063832270480924 0.8148895140844227 0 255 0
-1.8846860695550955 1.5632772501347474 0.9605009217140499 0 255 0
-2.0453573216403300 1.5131084761990747 1.1169162509741848 0 255 0
-2.1897473047553944 1.4639861768351952 1.2931201718158012 0 255 0
-2.3185387873423093 1.4080302752822582 1.4776464466807380 0 255 0
1.0239521584338935 1.7816172052549817 0.4327062588692464 0 255 0
-2.5208439625035077 1.2876545801554227 1.8834514927579165 0 255 0
0.5954470475314644 1.8051651640284647 0.2761496699931193 0 255 0
0.3638879026819457 1.8115569495270343 0.2271498785626307 0 255 0
0.1313686237094860 1.8110053697943198 0.1996424244351549 0 255 0
-0.1027406973876883 1.8057987564625231 0.1931317383219002 0 255 0
-0.3353765453429792 1.7952251583353016 0.2069344503409651 0 255 0
-0.5654706600371765 1.7794467626233885 0.2413883310900081 0 255 0
0.1878763781012490 -0.8029869798806669 0.7601336752833722 0 255 0
0.1544233120258784 -0.7262353091595561 0.8146552121347821 0 255 0
0.1206546132845664 -0.6492383267158801 0.8681214064377673 0 255 0
0.0878503578575819 -0.5727092183269418 0.9228123875474231 0 255 0
0.0546788432773091 -0.4956626277413322 0.9758380607480832 0 255 0
0.0217373244236359 -0.4183814771822316 1.0292905989699490 0 255 0
-0.0116835505365555 -0.3419762435703081 1.0822136220572149 0 255 0
-0.0452538887287456 -0.2653093024735719 1.1358811154794242 0 255 0
-0.0786875685407727 -0.1888074090075869 1.1896125210813486 0 255 0
-0.1117228024385021 -0.1124572614397463 1.2432046836977566 0 255 0
-0.0847931091580651 -0.8851832390399145 1.0400251672546090 0 255 0
-0.1817242323360556 -0.7399284598728855 1.1790001150005061 0 255 0
-0.2772021820840438 -0.5955542245984135 1.3177900981929422 0 255 0
-0.3730724709197448 -0.4506798144916651 1.4557166299687678 0 255 0
-0.4696897505465367 -0.3061323560035987 1.5952515351788772 0 255 0
-0.5686564725354788 -0.1638336750253995 1.7322574415196259 0 255 0
-0.6649367741595679 -0.0191522495844612 1.8695333832445993 0 255 0
-0.7631171956736206 0.1241578182605317 2.0079270949164956 0 255 0
-0.8600228453418793 0.2689075895387245 2.1470563673281582 0 255 0
-0.9653948446748133 0.4843992012711119 2.0118332803021000 0 255 0
-0.0942217639119567 -0.8135150131347360 0.7672256664268354 0 255 0
-0.1915108870069028 -0.6680086807397413 0.9059828034900300 0 255 0
-0.2881311889543960 -0.5242962943334053 1.0441795176426327 0 255 0
-0.3839347638867372 -0.3801570225353520 1.1838180033600292 0 255 0
-0.4806000278265766 -0.2358329657674610 1.3224305769004303 0 255 0
-0.5762396427712405 -0.0927407188031323 1.4605629213693652 0 255 0
-0.6732027478240104 0.0520792626919855 1.5986472170633990 0 255 0
-0.7699254968260247 0.1958608307473703 1.7364139909309000 0 255 0
-0.8654936150689770 0.3394821975505292 1.8729753857822673 0 255 0
-0.9634134897100234 0.4840511304344826 2.0097873091419891 0 255 0
0.0890020311497679 -0.6203545106084469 1.5949997917464955 255 255 255
-0.0054690651656147 -0.5959700918266575 1.5333933526749957 255 255 255
0.3395677109886891 -0.6865392335872504 1.8144401821658718 255 255 255
0.4116465232479762 -0.7085736555096692 1.8864037372721985 255 255 255
-0.2425916139160300 -0.6720502539869839 1.7521318240753354 255 255 255
0.3397141353668172 -0.6707876667210098 1.8242929716653595 255 255 255
0.4471659599295099 -0.5943931769361370 2.0386842265297531 255 255 255
-0.5686069528510478 -0.6533076830527875 2.1430797775043970 255 255 255
0.2139170086019122 -0.4506579899717908 1.7945953742526088 255 255 255
-0.0556966829385712 -0.3926351543391200 1.6555118966044740 255 255 255
-0.0579843552945155 -0.3614878723498059 1.6559254589896977 255 255 255
-0.2459306346587623 -0.4058009490871583 1.8711368165056190 255 255 255
-0.0813813934804173 -0.3016290045632805 1.7163398511127317 255 255 255
0.6346580873489622 -0.3709912384551698 2.2659990285746692 255 255 255
-0.0824618908558118 -0.2902069373427648 1.7316912722842468 255 255 255
-0.0817902256258030 -0.2820236090224016 1.7264497588280654 255 255 255
0.3829145140911565 -0.3060896243468558 2.0055497509364892 255 255 255
0.2160039054976159 -0.1823725173473446 1.9010940682319362 255 255 255
-0.2353065632383355 -0.0681354607483578 1.9448402203643238 255 255 255
-0.2804550618394459 -0.0316806419390571 1.9930339500678098 255 255 255
-0.1393549497441034 0.0564264103032135 1.8579638660272240 255 255 255
-0.2409330445811708 0.0628359863480386 1.9774426996225785 255 255 255
-0.0810314496666276 0.1105921438888990 1.7972352644201282 255 255 255
-0.4229456140221903 0.1532731816424457 2.2166811421315873 255 255 255
-0.1304586653759721 0.2254693614651087 1.8832631174199719 255 255 255
0.0527400427765984 0.3536815239855831 1.9076397927254520 255 255 255
-0.1345926731499930 0.3490698760021136 1.9139434844104806 255 255 255
-0.3589167226647691 0.5674495275814455 2.2096809595764304 255 255 255
-0.1963267911819636 0.7124701791356456 2.0639382288060157 255 255 255
-0.4958883253419175 0.8793292869069993 2.3806660733575113 255 255 255
-0.3015951204877320 0.8382056817405439 2.2122671694197265 255 255 255
-1.0686084643436655 1.0407454951783084 2.6493643237236162 255 255 255
-0.3371352258192277 0.9257647394308979 2.2173637906790926 255 255 255
0.3569319041511623 -0.7271990209229569 1.8106385986746112 255 255 255
-0.0387846073733596 -0.6171486027704913 1.5452004724950212 255 255 255
0.3547837813613348 -0.6899871709826758 1.8516778613333322 255 255 255
-0.1279219597614807 -0.4137555350640163 1.7939289699117946 255 255 255
0.2704003268629931 -0.4103708916549307 1.8414841130054924 255 255 255
-0.4234182580365768 -0.4093024614351703 2.0783775091416379 255 255 255
0.4306497959767416 -0.3287059146555825 2.0604199593161772 255 255 255
0.1261582212848367 -0.2662216623558217 1.8018788132700601 255 255 255
0.2280427849886471 -0.2500882719771731 1.8736455879994658 255 255 255
0.4022662255651793 -0.2436011846177026 2.1084050640760719 255 255 255
-0.2488046624891539 -0.2186296363404562 1.9332231952792691 255 255 255
-0.0921025686979171 -0.1818889004851886 1.7557274845075690 255 255 255
-0.0298011670500651 -0.1626517932854327 1.6840272579381299 255 255 255
-0.4127967745803607 -0.1442155287072981 2.1243502634839562 255 255 255
-0.1642144039266418 -0.0451252587181263 1.8715097404732699 255 255 255
-0.1548799880038705 -0.0211838328266609 1.8720396123820091 255 255 255
-0.5765815142641539 0.1137635889355795 2.3440883914835240 255 255 255
0.1163708226793712 0.1195583351493212 1.9000175087455844 255 255 255
-0.3065367163479646 0.1318901656261843 2.0554600964244214 255 255 255
-0.2972475782776578 0.3225445030122049 2.0813408226434205 255 255 255
0.3817760326474189 0.4239503281927810 2.2598310658082474 255 255 255
0.5291985448080871 0.7483951523554896 2.4614999998473492 255 255 255
0.0868351784181012 0.8388646790813903 2.0565322193020106 255 255 255
0.5921860430717985 1.1880287292329541 2.6502492483628544 255 255 255
0.3663227300566297 1.0913061823194028 2.4162428908486580 255 255 255
-0.1100975544823024 0.9695445296473153 2.0330044011902135 255 255 255
0.0811087128282693 -0.6318628457982871 1.5936205711792304 255 255 255
-0.2886414023384262 -0.7389896229654407 1.8722309191319337 255 255 255
0.1049535910696834 -0.6174028723447169 1.6005608795466348 255 255 255
0.1565791803887401 -0.6340181208515641 1.6574544684155128 255 255 255
0.2574601297705255 -0.6542476279305744 1.7515171714197333 255 255 255
-0.2993208483723214 -0.6904932899702829 1.8233784546863345 255 255 255
-0.0829428399166385 -0.4843913995624960 1.6801285333055338 255 255 255
0.2088554090104253 -0.4482831523586501 1.7830726231721243 255 255 255
-0.5337090913042007 -0.5154005121806866 2.1370991146927993 255 255 255
0.3904881859589069 -0.4273132873607073 1.8883969866329169 255 255 255
-0.4195898470386337 -0.4754330355033454 2.0796695369161045 255 255 255
-0.0827903879115361 0.1101253587623133 1.8009189067816012 255 255 255
-0.0862451834697264 -0.6644458618277715 1.6005487972541292 255 255 255
0.2825247779630344 -0.7061043555970195 1.7307387838354675 255 255 255
-0.0142092798875353 -0.6307610470353180 1.5416590125760248 255 255 255
0.3285607713209692 -0.7272453638430121 1.7980586027088674 255 255 255
0.1836979493249533 -0.6828933186997705 1.7218353358319405 255 255 255
-0.5577113796985931 -0.5505830953954711 2.0437487656244553 255 255 255
0.3707544834502143 -0.4901508101369494 1.9374090500652961 255 255 255
0.2652846185031473 -0.4469747236894178 1.8572484906127880 255 255 255
0.0993936885849687 -0.3899455888682928 1.7241967734592825 255 255 255
0.2679173102402583 -0.4013763415560383 1.8884147294159619 255 255 255
0.1050753330736811 -0.3667452773931362 1.7581064207106714 255 255 255
0.0669640889620731 -0.3619851552565985 1.7104699335151534 255 255 255
-0.0093596971950749 -0.3360968538746993 1.6150741098410570 255 255 255
-0.0795571775449494 -0.2800408984582639 1.7079960155584866 255 255 255
-0.0461797130126367 -0.2238014942288592 1.6773223867945728 255 255 255
-0.0002464543213447 -0.2113378330184226 1.6598375869812152 255 255 255
-0.4009747449944761 -0.2743917957133868 2.0823564025424419 255 255 255
-0.4027272684345358 -0.2714857066796798 2.0905912336564123 255 255 255
-0.3051876028120066 -0.2389993816048845 1.9657241217329968 255 255 255
-0.0574647401972475 -0.1945057857497740 1.7015379937416579 255 255 255
-0.0196907661337153 -0.1680842045855685 1.6649026695902216 255 255 255
-0.0883252905418180 -0.1778492428352507 1.7733900356985721 255 255 255
0.2216275812938326 -0.1640771943268960 1.9118261975095134 255 255 255
0.0563511319847723 -0.1320613364166546 1.7595720541252531 255 255 255
-0.2832880474539019 -0.1502047820302816 1.9567720243598963 255 255 255
0.0208845952821104 -0.0474233774401643 1.7341415115225853 255 255 255
0.4935912629249059 0.0552978045748450 2.2273026665479669 255 255 255
-0.2570890853505996 0.0758818027443851 2.0002716217176051 255 255 255
-0.3176926083039198 0.1517959980692674 2.0735453752455513 255 255 255
0.2191077087071323 0.2296664701274518 2.0371482626253186 255 255 255
0.1067410061952817 0.2502461183926577 1.9202736692118658 255 255 255
-0.0900965749267258 0.2850293005687649 1.8553907986603040 255 255 255
0.2515544864620082 0.3387300657025522 2.0496910897921712 255 255 255
0.0390782847941816 0.3805615723690373 1.8376709086430147 255 255 255
0.0986115830242415 0.4744441568419462 1.9753094230289721 255 255 255
-0.2936236727342703 0.5126724742904578 2.1323880352150510 255 255 255
0.2234755719179514 0.6166328509959225 2.1543814709084503 255 255 255
-1.1638259496738228 0.7268165174150516 2.4975799942545400 255 255 255
-0.1465569749903768 0.6303592412118955 1.9899008187232292 255 255 255
0.4023768043358982 0.7939816623804896 2.3434526582244679 255 255 255
-0.0650880412814034 0.7967139966926258 1.9292932999664067 255 255 255
-0.1266364432500835 0.8906107763059392 2.0383481340380483 255 255 255
-1.1810855719024147 1.1558584555648679 2.5891216289066392 255 255 255
-1.0980373154867653 1.1643747301025051 2.5401427669768850 255 255 255
0.0238844486812084 -0.4504845419033425 1.6021178059824273 255 255 255
-0.0756142052970166 -0.2043524335751110 1.7331158281502503 255 255 255
-0.2545457619474170 0.1387046145758708 2.0089652794018353 255 255 255
0.0635318096737090 0.1650659504103360 1.8848760632299502 255 255 255
-0.1349037165791296 0.3074320289494964 1.8993144473750507 255 255 255
-0.3212064542899767 0.8164851544023088 2.2242491196773644 255 255 255
-0.1848896042114414 0.8217813093394373 2.0637972703548755 255 255 255
-0.1341585354713768 0.8295140755673529 1.9827819188778371 255 255 255
-0.2158970221405491 -0.8464700556632612 2.1892962072994391 255 255 255
0.1912188905709320 -0.4529929415656017 1.7491663979108898 255 255 255
0.1153440622319550 -0.1825128755853058 1.8084776875628243 255 255 255
0.0510841256134301 -0.0358602863318371 1.7589104489499707 255 255 255
0.0509955217558585 0.0928441314998529 1.8117270316071858 255 255 255
0.1081614891027820 0.4040503789586876 1.9529328185772759 255 255 255
-0.0230843992536088 -0.5888639370833175 1.5424268004646500 255 255 255
-0.0230421358446781 0.1097192554140587 1.7487012385063183 255 255 255
-0.2226266227194085 0.7429437839550741 2.1153796970892982 255 255 255
-0.2699923724619897 -0.4954399793143214 1.8874122045393753 255 255 255
0.1238388735068531 -0.4420429847783346 1.7265028217901461 255 255 255
-0.1847665303381207 -0.3076047249835336 1.8038741330209191 255 255 255
-0.0924185791836083 0.1632293648256229 1.8361829313727149 255 255 255
0.7115377741255227 -0.5634463301942594 2.2542120180514740 255 255 255
-0.0022029479751799 -0.6305095605235778 1.5334002649387293 255 255 255
-0.1413436861803952 -0.6414742465466019 1.6612225939750651 255 255 255
0.2336582904633202 -0.6350988287100644 1.6824108784757108 255 255 255
0.2270481798952813 -0.6466512351989491 1.7115532553390826 255 255 255
-0.3950996909059921 -0.6999757472474495 1.8708298236464298 255 255 255
-0.5653991982163504 -0.8462051878832133 2.2724698076695145 255 255 255
-0.4170668888004308 -0.5837737908193239 1.9678766986353169 255 255 255
-0.1405843297984113 -0.3916569498292524 1.7751307641637339 255 255 255
-0.5490404186857778 -0.4831840285013180 2.1188163772441460 255 255 255
-0.4035100266860219 -0.4071978376164183 2.0001417726731390 255 255 255
-0.0944804070504190 -0.2756955066606033 1.7369884694899405 255 255 255
-0.2243286790924053 -0.1995408585636809 1.9025588986408017 255 255 255
-0.5995244877961068 -0.0304579795388434 2.3331642303454281 255 255 255
-0.4194876668037644 0.0194914058685941 2.1739262897722895 255 255 255
0.0924993491189696 0.2811337780941006 2.0188069531236263 255 255 255
-0.1459069913169253 0.3543781654517335 1.9262758596792819 255 255 255
-0.1159154946774805 0.5115779583411464 1.9557893422124613 255 255 255
0.6141604221325876 1.1877153516205041 2.6834378466657025 255 255 255
-0.0799804360619829 -0.6228146480300381 1.6002853640773438 255 255 255
-0.2335995689639386 -0.5398732061479505 1.8309987268084615 255 255 255
-0.6026019382473795 -0.4370035766400275 2.2964542150191090 255 255 255
-0.2708879304057783 -0.3428929684637936 1.9234247940066034 255 255 255
-0.4051987485299621 -0.2683306163729204 2.1031207569397421 255 255 255
-0.5893299380789900 -0.2720835060963740 2.2730498704899951 255 255 255
-0.4054267323998390 -0.2261585693178046 2.0914421879903395 255 255 255
0.0156940345211098 -0.1178246155376365 1.7053600843342931 255 255 255
-0.3136425972805217 -0.0737484118540400 2.0240232894991763 255 255 255
0.0637016169823681 -0.0310981159376831 1.8006169238085894 255 255 255
-0.4262415878606571 0.0083840983103745 2.1761990735917749 255 255 255
-0.4307698343427184 0.1412932013368419 2.2064203488451177 255 255 255
-0.2604463310766603 0.1752160535825273 2.0501634285802979 255 255 255
-0.2685592382484439 0.3376905447422396 2.0783632118997648 255 255 255
-0.1672908466806849 0.3364819274163735 1.9696489325644100 255 255 255
-0.2736287556793655 0.4334817462883451 2.0931790451511496 255 255 255
0.0439994836094539 0.4887115091949855 1.9253525881606359 255 255 255
-1.0527232258084425 1.1336139900560909 2.6246905823661848 255 255 255
-0.4001364393880058 -0.7364114080334712 1.8875469071375424 255 255 255
-0.2846471741038650 -0.6704925000981958 1.7903833649582448 255 255 255
-0.4163828075686296 -0.6161473448767361 2.0092398147022754 255 255 255
-0.6062371247512945 -0.5272814444652253 2.2522858456452632 255 255 255
-0.1236551522026565 -0.3591733526269402 1.7024562025792718 255 255 255
0.2425149416773871 0.5988039696876850 2.1342170333743624 255 255 255
0.4396887993006153 1.2149131853875721 2.5172477681225729 255 255 255
-0.2342028447887015 -0.7194997008035693 1.7097815268330123 255 255 255
-0.0141606426362264 -0.6367319478825413 1.5991467239025088 255 255 255
-0.0839547215141023 -0.4844893333724009 1.6797846791477502 255 255 255
0.4528469176017537 -0.3900784439260085 2.5651739332390653 255 255 255
-0.3646131274399165 -0.3380624626674753 1.9944563837508831 255 255 255
0.2383425952443432 -0.2709608489878613 1.8693748240792811 255 255 255
0.0160551585377265 -0.2045226906665878 1.6708886548466964 255 255 255
0.0738768217714831 -0.1484327740068870 1.7691391867925574 255 255 255
0.1875671219611803 -0.1444585746159133 1.8777945125878261 255 255 255
0.1200637678575251 -0.1438016042772039 1.8365799823080771 255 255 255
-0.2853319534683010 -0.1134930794869149 1.9832855148193111 255 255 255
0.1366877915272400 0.0719736325998497 1.8875438400384947 255 255 255
-0.1583076870848767 0.0700380322394676 1.8925014750924678 255 255 255
-0.2556539498249464 0.0769939420024492 2.0122489651621223 255 255 255
-0.4740294754941475 0.1438509624583452 2.2606680496695541 255 255 255
0.0939443263039598 0.2513693854363041 1.9060163415546885 255 255 255
-0.4776104398195082 0.2772382241083542 2.3083728687078526 255 255 255
-0.4347580993065838 0.2735281413626738 2.2422338282506153 255 255 255
-0.4203976524748461 0.2941278978981683 2.2450390202741524 255 255 255
-0.1229329527929348 0.3651346523032384 1.9089756785499468 255 255 255
-0.1715405358165869 0.5007379852607219 2.0055698563422411 255 255 255
-0.0537207663210779 0.5051902468811840 1.8550408067527688 255 255 255
-0.1172928769035071 0.6122041607891846 1.9685945376160103 255 255 255
-0.0575975952400647 0.5899038562780952 1.8760780612851278 255 255 255
-0.5991626698416667 0.7507645979796626 2.5349310296957528 255 255 255
-0.1434488259721673 0.6267713212552950 1.9874030625327368 255 255 255
-0.1177551316267786 0.6496099931726773 1.9820374536598848 255 255 255
0.0224354857841849 0.8063843547760543 1.9820074652955748 255 255 255
-0.1704411362634648 0.8314621419561732 2.0603886655631634 255 255 255
0.3516924480054802 1.0504177531184595 2.3728775917957687 255 255 255
-0.3440582362364388 1.0039298070124225 2.3151138877493800 255 255 255
-0.0429516388358606 -0.6577879556459677 1.5105714795456380 255 255 255
0.0259230769225631 -0.3999935536800234 1.6348538300525908 255 255 255
0.3237856218744799 -0.4154953669425163 1.9353900923701417 255 255 255
-0.0780344571123017 -0.2314993710766126 1.7122215955449391 255 255 255
-0.3705820644666205 0.3088371836094878 2.1567531515358307 255 255 255
-0.0564251705729903 -0.6500765425077715 1.5278286457111734 255 255 255
-0.3415442786377465 0.7786515748887242 2.2294547711022368 255 255 255
-0.0853308587791295 -0.4289491845526778 1.6543050774574031 255 255 255
0.1333530970184029 -0.1148514721278467 1.8165684127448145 255 255 255
0.1808387841668839 -0.1680846432290350 1.8574562332080979 255 255 255
0.0766116221617388 0.2978008370913230 1.8795723345643847 255 255 255
-0.1226148515176413 -0.6217765907715065 1.6226247747690534 255 255 255
-0.5647545330930064 -0.8671939647082280 2.3736864653640559 255 255 255
-0.2197897068556696 -0.4248870012403816 1.9357763837492867 255 255 255
-0.2457965827530622 -0.4071307836734572 1.8787305775589083 255 255 255
-0.0712152090729727 -0.2722602601800108 1.7672151907059588 255 255 255
-0.4661256319418869 -0.2813195452255113 2.1631633535596464 255 255 255
-0.0688916641539630 -0.1517851298170613 1.7454365781301320 255 255 255
-0.6300628520657977 -0.2020540388343801 2.3561670444601637 255 255 255
-0.4981899188985377 0.0420747397517394 2.2435029836428768 255 255 255
-0.1077879268576396 0.2264783639378625 1.8813928799481565 255 255 255
-0.4409495278952670 0.2403109323896924 2.2232188805309532 255 255 255
-0.4564827834068259 0.4204205923047528 2.2829067724066334 255 255 255
-0.2518195545475947 0.7484479192407605 2.2615039439895526 255 255 255
-0.2839468025970726 0.7263494551196654 2.1817543532547816 255 255 255
-0.6293615812197997 0.8013237694886435 2.5583113001883007 255 255 255
-0.6244003649680590 0.9176161660523978 2.5960110124619842 255 255 255
-0.1872438806313794 -0.6592329215931740 1.6939476229462849 255 255 255
-0.1227376368953221 -0.6381228651020355 1.6479593499433829 255 255 255
-0.3070203584460973 -0.6786411177885552 1.8286732463788908 255 255 255
-0.0595149590967239 -0.4799042651081926 1.6295643319172939 255 255 255
0.2284939594500734 -0.4636845667161849 1.8078863816733133 255 255 255
0.2522584845793138 -0.4598385717018966 1.8214315947490889 255 255 255
-0.0931477316955096 -0.3708151662879140 1.7249051622526839 255 255 255
-0.2820225690805955 -0.3322206395260450 1.9232385052553909 255 255 255
0.3429414111818909 -0.3026910384961559 1.9516543202631098 255 255 255
-0.2168433552764277 -0.3145454412488968 1.8685550784358895 255 255 255
-0.5137411679837782 -0.3358365554894595 2.1678592744671406 255 255 255
-0.3183984295600748 -0.0701726892479430 2.0218965122137540 255 255 255
-0.2733379158984111 0.1880166073780518 2.0446911619706443 255 255 255
-0.1096127474537507 0.2221076197999632 1.8692924552021690 255 255 255
-0.4800626811275759 0.2377913488977410 2.2873736169821797 255 255 255
-0.5892609088250338 0.3419680191898293 2.4285915731560230 255 255 255
-0.4918292429641475 0.5316940158989412 2.3702755397775448 255 255 255
-0.4220711905637859 0.5185559086693967 2.2584492729882797 255 255 255
-0.1458003942715167 0.4891748428904843 1.9716483001098810 255 255 255
-0.4849096353881952 0.7331806016405999 2.3763336035426494 255 255 255
0.3346611241670843 0.2738618738404774 2.1325048738038674 255 255 255
-0.6535125709199585 0.8301973274807470 2.5381880267211692 255 255 255
-0.1545331247056969 0.8374225211612001 2.0430691585174330 255 255 255
-0.1282989480663513 0.9355061778186413 2.0612565194463803 255 255 255
0.2656054960484937 1.1993239091361350 2.3425252481826160 255 255 255
-0.1515426332076455 -0.6312227335208735 1.5291562946728199 255 255 255
-0.6295688502682477 -0.8489866721203860 2.3106570135804843 255 255 255
-0.6076409756250420 -0.4444177382239114 2.2644653580754319 255 255 255
-0.0511301773016619 -0.1645341904496765 1.7188552930661700 255 255 255
-0.2196016385240309 -0.0977445355936810 1.9090952565316037 255 255 255
-0.0416014360900441 -0.6639607006888397 1.5262862564451751 255 255 255
-0.2431744874056800 -0.7119517887185540 1.7609635237249668 255 255 255
0.4567925692963604 -0.7115209971750328 1.9533651459637884 255 255 255
-0.3252113981828550 -0.6918080865831322 1.8557992395106737 255 255 255
-0.4153971439658969 -0.5725974947503223 2.0252872742085506 255 255 255
-0.5789437796862007 -0.5654184630489016 2.1989819070194905 255 255 255
-0.4462693724209570 -0.5262400805312193 2.0694649708487569 255 255 255
-0.2904596410278023 -0.4475717465541202 1.9383312865794871 255 255 255
0.2078820568368798 -0.2720200268332160 1.8509455552283356 255 255 255
0.0315433974385897 -0.2351743002121927 1.6803851445247346 255 255 255
0.1943483325880599 -0.2339120138449076 1.8430089415076480 255 255 255
0.0216164940984491 -0.2041662382113261 1.6771947523508643 255 255 255
-0.2392682353832103 0.0221953692181465 1.9643927575544389 255 255 255
-0.4268278603044013 0.0084318423563927 2.1725170229094850 255 255 255
-0.1417739813773977 0.0315902594669328 1.8402584564994982 255 255 255
-0.2447883875677270 0.0438391775489773 1.9694349844861065 255 255 255
-0.1664121419339750 0.2008288608003372 1.9215971010850765 255 255 255
-0.1070810634906039 0.2189566648249039 1.8656226644091802 255 255 255
-0.2649645531176930 0.3393661040628793 2.0770735952715071 255 255 255
0.0770543830096280 0.4421009543105399 1.9384175568985711 255 255 255
-0.1540342438734719 0.4475763499758207 1.9644785748322846 255 255 255
-0.3215990979121024 0.5485548474170088 2.1668430139785819 255 255 255
0.0095409770647746 0.9679164788319166 1.9765861667793572 255 255 255
0.2926254969084567 -0.3440728400960822 1.9100872731071377 255 255 255
0.1810314133515454 -0.2998308385900734 1.8089631584723218 255 255 255
-0.2101833379002698 -0.2520480764696490 1.8681333875226915 255 255 255
-0.2405375040466229 -0.0503413400818922 1.9562628402358955 255 255 255
0.1579106633998267 0.5794437929183709 2.0410467190877499 255 255 255
-0.1468770427284953 0.5834399139852522 1.9774074215200930 255 255 255
-0.4979699067456262 -0.5936345922389705 2.0586283350046859 255 255 255
0.2811787706551616 -0.4671411715676994 1.8604965662037927 255 255 255
-0.0958731119699605 -0.2200063118190950 1.7504732838534292 255 255 255
-0.0976462436596659 -0.6426229302776377 1.6388952450714196 255 255 255
-0.1526406981730233 -0.6505661797155620 1.6740542229838056 255 255 255
0.4092831120823801 -0.7134608815679231 1.8782720334810836 255 255 255
-0.1962849703423828 -0.6167904292013731 1.7429215625181627 255 255 255
-0.2781360100055779 -0.4128141534535865 1.7648455800322609 255 255 255
-0.4341221457633366 -0.4648273691810632 2.0762905934482347 255 255 255
-0.5353180816073504 -0.4158206343352431 2.1689934825353774 255 255 255
-0.4761056379890967 -0.4046203423810075 2.1263984464853039 255 255 255
-0.0892467798014440 -0.2987065385842509 1.7335158949744609 255 255 255
-0.3800560409303038 -0.2893875305317167 2.0316771048954791 255 255 255
-0.5941827822085228 -0.1774866342044772 2.3003613326746049 255 255 255
-0.4972363251361287 0.0101001699109236 2.2395509372338900 255 255 255
-0.5125505070285454 0.1618094809542301 2.2833537638493375 255 255 255
-0.4387306408466853 0.2769414181295740 2.2511315629999538 255 255 255
-0.2836401733644318 0.4490980723968594 2.1094448939877317 255 255 255
-0.1301074768086750 0.4937207944292510 1.9426431453174047 255 255 255
-0.4992695825986941 0.6630199193213455 2.4057232557859258 255 255 255
-0.4398581243443527 0.6766555307789490 2.3475097921665817 255 255 255
-0.2648686970345566 0.8584807423773776 2.1833802877442245 255 255 255
-0.4643267862804636 0.9574647799763571 2.4296679307011821 255 255 255
-0.3321083936167035 1.0962133858988672 2.3078310726245022 255 255 255
-0.3394340160908149 -0.7281133328911826 1.8461993957872835 255 255 255
-0.4461344723380346 -0.4782786974252665 2.0854602202790113 255 255 255
-0.6244114603068822 -0.5194948436995996 2.2564771579223848 255 255 255
-0.6109181575344032 -0.4711994308252077 2.2735131917049469 255 255 255
-0.2888373848746641 -0.3208680657032964 1.9431239600704808 255 255 255
-0.2193751151745024 -0.2868854387643950 1.8517915291914950 255 255 255
-0.4164928993283430 -0.1341455244083827 2.1288057056815877 255 255 255
0.3390342212148965 -0.0073646781479524 2.0413887559110275 255 255 255
-0.2639482008967846 0.0369889693097090 1.9852587854644170 255 255 255
-0.4002976019556233 0.0548484165064019 2.1378331771094765 255 255 255
-0.0810720735495869 0.2444524561455939 1.8414619042063736 255 255 255
-0.3250380707271319 0.2844354828010349 2.1235990148626627 255 255 255
-0.6463932843819471 0.3218932274531880 2.4925680448521348 255 255 255
-0.6319615674370596 0.3599434966434245 2.4601758522533252 255 255 255
-0.2821389852077171 0.4539977825608439 2.1129878416529309 255 255 255
-0.3296919106121863 0.8359295395255756 2.1784263485661781 255 255 255
-0.2396322174874180 -0.7393864920026741 1.8312908215791892 255 255 255
-0.1800465654903816 -0.4500451328803919 1.7770871996764290 255 255 255
-0.3166877035730173 0.0583291143966993 2.0678083735545609 255 255 255
-0.5635173291092783 0.2305664392733958 2.3647398204530652 255 255 255
-0.2856903069323096 -0.7391639631904319 1.7777808715474492 255 255 255
-0.1181595892874263 -0.6716360547365219 1.6279711272481210 255 255 255
-0.2806741852455081 -0.7097893845867607 1.7627445782336881 255 255 255
-0.2624463168123174 -0.7398405921293283 1.8372842586095208 255 255 255
-0.1324532879564053 -0.6529170775829236 1.6496938493606432 255 255 255
-0.0920421907383839 -0.6298197811055749 1.6177394107625207 255 255 255
-0.4553166829119242 -0.6586144805362846 2.0387883511215179 255 255 255
-0.4371380320690368 -0.3824942275354676 2.0975449862611950 255 255 255
-0.3445903632415881 -0.3125284175092203 1.9904936852207502 255 255 255
-0.4685221466986218 -0.3135300549453819 2.1266702077618636 255 255 255
-0.6281256964404127 -0.2048044597072692 2.3466980257488697 255 255 255
-0.5671954601075395 -0.1871821354111156 2.2919337865945444 255 255 255
-0.6136712373682558 -0.1142621635841414 2.3326677823540178 255 255 255
-0.6316185060112527 -0.0357111090138164 2.3844329881163837 255 255 255
-0.6366330065505688 0.0582335702568235 2.4151780944323260 255 255 255
-0.1774792480774261 0.1869946848961077 1.9323900887580119 255 255 255
-0.3491645984669312 0.2178376854335309 2.1177004282511342 255 255 255
-0.0828051995555517 0.2445223864484616 1.8420597640140475 255 255 255
-0.6169003624149005 0.4313112012123276 2.4571022059116476 255 255 255
-0.3307502707583558 0.4444121858257235 2.2067694410755410 255 255 255
-0.0827317878094953 -0.6451394851428081 1.5865319269075946 255 255 255
-0.1259689423691528 -0.4531360047223836 1.7204367738047917 255 255 255
-0.1539892599211790 0.2711366923930134 1.9119730958093797 255 255 255
-0.1472953941392845 0.7877392979975237 2.0319454373397612 255 255 255
-0.5115024413325933 0.9429467252082773 2.4463185616987717 255 255 255
-0.4863975533714520 -0.5322928637795772 2.0868620531925046 255 255 255
-0.4334021127790670 0.5950566330431091 2.2997459777398621 255 255 255
-0.0696875186701513 -0.6360026779463346 1.5681133517449801 255 255 255
-0.1598568539019896 -0.3543790113867296 1.7782710430312267 255 255 255
-0.5647135027799279 -0.4920227410337726 2.3517451875439801 255 255 255
-0.4672489194075100 -0.2808972208798305 2.1533074754255099 255 255 255
-0.6044765019238101 0.0738304427070378 2.3632679354092936 255 255 255
-0.2886752023860257 0.1591756755495775 2.0395498536432104 255 255 255
-0.4337171465592427 0.1383736622362379 2.2022714447537588 255 255 255
-0.1183374503784156 0.2340807896798736 1.8751637141228268 255 255 255
-0.2926286925613812 0.3008780836592351 2.0777737853208862 255 255 255
-0.3366863082834999 0.3005883456910005 2.1351208282088008 255 255 255
-0.1733724794495402 0.3599480738846434 1.9750813398269536 255 255 255
-0.2889023357500289 0.5789618498519413 2.1416807162745393 255 255 255
-0.6091070417207995 1.0654481419485240 2.6292397305833894 255 255 255
-0.1114468682169196 1.0658655376869799 2.0707860351296254 255 255 255
-0.2699601132826751 -0.7206157533749197 1.8174394960632743 255 255 255
-0.1476644284854287 -0.6370786871450305 1.6496794023580330 255 255 255
-0.4193075294784823 -0.7397763359889653 1.9431423946368724 255 255 255
-0.0276993766266957 -0.5433462711066346 1.7716241275096591 255 255 255
-0.1251423894620234 -0.4876549403961248 1.7410861362511696 255 255 255
-0.4453080990871872 -0.4174265311112555 2.0918456679701967 255 255 255
-0.2598865552331973 -0.2044167378600698 1.9405299781293162 255 255 255
-0.5131118871801610 -0.2551334473894974 2.1993367790618628 255 255 255
-0.5954363951820483 -0.2143330559747225 2.2889314383374071 255 255 255
-0.3189269034304938 0.0253141193760205 2.0580289245004835 255 255 255
-0.2275524803649507 0.0659476331577777 1.9517742092587236 255 255 255
-0.3020193077289672 0.0868034243057338 2.0469904334848472 255 255 255
-0.3150051783442294 0.0945263790273270 2.0556626222305070 255 255 255
-0.6421947670901780 0.0599986025198829 2.4153408288008382 255 255 255
-0.5986299863255535 0.3561888692137778 2.4403767367731319 255 255 255
-0.1544001943712594 0.5315023393505265 1.9828725594445133 255 255 255
-0.4985241052552816 -0.7504331452823010 2.0091962961468042 255 255 255
-0.5503686197172586 -0.5706239364843910 2.1471704309146920 255 255 255
-0.2688650928698637 1.0323415416565052 2.2291025622904197 255 255 255
-0.1074860611088209 -0.6592078657048466 1.6253347875777564 255 255 255
-0.0480560541893454 -0.5942618086202148 1.5377658991537559 255 255 255
-0.3209220330369646 -0.6842568355413015 1.8517760506724770 255 255 255
-0.6375885715778864 -0.5966017091521651 2.2426855863998849 255 255 255
-0.0202646885454509 -0.1677708831051999 1.6655741009457117 255 255 255
-0.5839975888091260 -0.1722656302219048 2.2922641720507642 255 255 255
-0.4731540399094314 -0.0252208863384862 2.2161009635965883 255 255 255
-0.3885260822179291 0.0197724659068061 2.1314708784708039 255 255 255
-0.2928304037305764 0.0659692748549432 2.0502939466488712 255 255 255
-0.2484019125106585 0.1744087114377333 2.0043879003414133 255 255 255
-0.1319951434668374 0.3359968757169876 1.8392445228166050 255 255 255
-0.3304594156478693 0.3456160753974498 2.1338733129211604 255 255 255
-0.3298699567730665 0.3894803326299794 2.1417871815047747 255 255 255
-0.5869513582383474 0.4030571551890434 2.4248181917167191 255 255 255
-0.4607827535371989 0.3981248597088314 2.1722755827221292 255 255 255
-0.1490033857030646 0.5366505361975604 2.0170031703480653 255 255 255
-0.4736067852425621 0.7059469768230191 2.3530828698904882 255 255 255
-0.0883891600209276 1.0208660357478863 2.0374584507343974 255 255 255
-0.0520935901144552 -0.6293688999588767 1.5491595861617546 255 255 255
-0.2701177405101802 -0.2869591177947171 1.9191616226598853 255 255 255
-0.6394805076210961 0.8927614774930586 2.6088447266052270 255 255 255
-0.3667736854512815 -0.2974988281580837 2.0247858988348355 255 255 255
-0.2001419704711296 -0.5121454912369359 1.7888479755905919 255 255 255
-0.3154704785012896 -0.4962956610875846 1.9288966280302802 255 255 255
-0.1001847222048795 -0.6881134288923185 1.6967489251401489 255 255 255
-0.0839574484576449 -0.6182717215732295 1.6509518167303989 255 255 255
-0.2360167299619720 -0.5597737954078592 1.8314155904169258 255 255 255
-0.4717248783965484 -0.5400006824963526 2.0732896336422737 255 255 255
-0.2533146261093315 -0.2161689371015416 1.9340860829271014 255 255 255
-0.4946622914832162 -0.1572571521885839 2.1916524841460472 255 255 255
-0.6230256642753531 0.2028106555311819 2.4217512959173746 255 255 255
-0.4985343283956603 0.2506905768668206 2.2923070857495311 255 255 255
0.7622350346736084 0.9830148823143645 3.4963960027407097 255 255 255
-0.3188758840817627 0.7139532899215837 2.2097599400709811 255 255 255
-0.0980905216700556 0.7819946907486255 1.9915193034008745 255 255 255
-0.1356653705422053 -0.6928685436499473 1.6230150326223138 255 255 255
-0.4487652409563975 -0.3819831284219830 2.0847918114325750 255 255 255
-0.2082409666504483 -0.3053367100760179 1.8344087519205865 255 255 255
-0.4553402773903468 -0.0175588010682737 2.1930089381160851 255 255 255
-0.4474358102856630 0.0005417952577127 2.1907403698957184 255 255 255
-0.2405257241523762 0.0430922828350725 1.9701773443782633 255 255 255
-0.6212449605935593 0.2178100520956410 2.4182747795981050 255 255 255
-0.4571647605304614 0.2631162220860308 2.2621097321868175 255 255 255
-0.6141390856892204 0.2956509872781372 2.4281427397537012 255 255 255
-0.4124076659705764 0.4259504523967941 2.2449730510012778 255 255 255
-0.6498425767748390 0.7285575185730089 2.5576124755160450 255 255 255
-0.2409750989001604 -0.5322110819786336 1.8434933118368551 255 255 255
-0.1539649858773240 0.8383851225107315 2.0432315977952165 255 255 255
0.7051105985129413 -0.5388375177632567 2.2781518747667371 255 255 255
-0.2451780577075935 -0.4084540306413702 1.8802798452462302 255 255 255
-0.0543280970815934 -0.1645344625581202 1.7139829799289199 255 255 255
-0.5565478615244466 -0.1819829873341705 2.2621105662629626 255 255 255
-0.4592895318662529 -0.0203679075894976 2.1957830656535040 255 255 255
-0.0871364029513297 0.0913526936547286 1.8131792264099724 255 255 255
-0.6563287691067803 0.5820734899405107 2.5428063506473393 255 255 255
-0.2146968189273100 0.7821640064702997 2.0865001825461835 255 255 255
-0.1684421183449993 -0.7052484241025261 1.6551249143078373 255 255 255
-0.3336574124535723 0.8900863087560253 2.1564237139306499 255 255 255
-0.4206118521552836 0.9939461118221378 2.4143780718913188 255 255 255
-0.1327702452973156 -0.4849919272730856 1.7292821000391623 255 255 255
0.1216916559539635 -0.7496705020434825 1.8404179181256934 255 255 255
-0.6111366067159469 -0.7441429144441916 2.1858059075169294 255 255 255
-0.3825340033905511 -0.4353171354583469 2.0018299164792603 255 255 255
-0.4506508559534907 -0.1221990894553756 2.1644745548972795 255 255 255
-0.1166636611597256 0.3724942716070719 1.8669094261610595 255 255 255
-0.0923218913040360 0.4799351425197226 1.9100058873310690 255 255 255
-0.6096541889335327 0.6157588147083087 2.5023887450946658 255 255 255
-0.5693575065501051 0.7342006718465761 2.4745108842951815 255 255 255
-0.4235096227363560 0.8112151364476673 2.3459407715550018 255 255 255
-0.4017922035657575 -0.6819967574336196 1.9671204675293898 255 255 255
-0.5249827332151491 -0.5808777818689965 2.1215360934483551 255 255 255
-0.2344858567445369 -0.4145560223815635 1.8699022569566930 255 255 255
-0.2722570040673240 -0.3653538247396357 1.9130313989294621 255 255 255
-0.5361991299362185 -0.3028642566230609 2.2435072655634465 255 255 255
-0.1231475805467532 -0.1117698337639689 1.7932922037938965 255 255 255
-0.4399500422611338 -0.1527091641367780 2.1650818246681114 255 255 255
-0.4524947992236790 -0.1461123692753095 2.1569694515865052 255 255 255
-0.1084651634302158 0.0088398556120666 1.8159044081065581 255 255 255
-0.6456084203183732 -0.0187406923677953 2.3910783018307633 255 255 255
-0.3999407782873982 0.0559706306225249 2.1418122385961675 255 255 255
-0.4916310376511586 0.0570345870790661 2.2376739210798036 255 255 255
-0.3702335969678910 0.2110178789839393 2.1395724337967925 255 255 255
0.1047833632153212 0.9033798557017414 3.3978354405521820 255 255 255
-0.6604538249012810 0.5845254930128605 2.5492540788648697 255 255 255
-0.3637643779350777 -0.2890596245030509 2.0169550826157145 255 255 255
-0.0614562143853732 -0.3746047425383159 1.7459820631210157 255 255 255
-0.6726805432855585 -0.4275646228788039 2.3137491679456872 255 255 255
-0.2166547441571289 -0.2924443011378686 1.8513423915581413 255 255 255
-0.6305003329787695 -0.3617351817141667 2.2838923104241005 255 255 255
-0.6130737021916630 -0.1994886516826555 2.3221582545632344 255 255 255
-0.6375287961691498 -0.1438103891874372 2.3548965416479017 255 255 255
-0.4689551684726574 -0.0924345389866859 2.1846574094684872 255 255 255
-0.3178724694339614 0.0226960351678380 2.0495326981502968 255 255 255
-0.4500411258098538 0.0005384534847810 2.1887808225020251 255 255 255
-0.5834570830747801 0.0064173035244046 2.3303925691006775 255 255 255
-0.1234396313972823 0.2282469456525984 1.8714661510950883 255 255 255
-0.5925281163039640 0.1474261089815769 2.3704047724820390 255 255 255
-0.3353064429280628 0.3006221228081849 2.1334937465404691 255 255 255
-0.6317885447345546 0.3251362514957670 2.4596803674636476 255 255 255
-0.4906124552298021 0.4996808630394822 2.3527884802232650 255 255 255
-0.6439647429168032 0.7071675463068972 2.5973897778025283 255 255 255
-0.5754584183047227 -0.5224622769595979 2.2408399296867927 255 255 255
-0.6185826157916168 -0.0731067555608638 2.3782259197675444 255 255 255
0.5114239591029910 0.6491103696419211 2.4621505079900210 255 255 255
-0.5827425953864918 0.3754547740591576 2.4257759070844500 255 255 255
-0.4975109536086215 0.7770071145724167 2.4080615051328884 255 255 255
-0.4275583923253379 0.9809504274415666 2.3939623203281961 255 255 255
-0.4216879598117149 0.4658171180573980 2.2740334377033466 255 255 255
-0.4460288088695776 -0.3272464286391952 2.0958294601444649 255 255 255
0.0379998599943452 -0.6949369621192663 1.8264628787369634 255 255 255
-0.0822422305254922 -0.5127410374647003 1.6694745931253245 255 255 255
-0.4726938005444552 -0.5158254882742179 2.0804191339180420 255 255 255
-0.5825051890576383 -0.5179592041294399 2.2324042789494811 255 255 255
-0.5370922434847643 -0.3863672041417741 2.1791681869013644 255 255 255
-0.2578409905594157 -0.2081169053854082 1.9393491010944937 255 255 255
-0.5945390875510308 -0.2153248483900523 2.2886431374513032 255 255 255
-0.3279382342531765 0.0381440739416097 2.0710748005063735 255 255 255
-0.5913731966312810 -0.0418849028829085 2.3256260605588857 255 255 255
-0.0758101344306574 0.1234658727406241 1.8153040515403767 255 255 255
-0.2453150950612795 0.3022288154309383 2.0362270680045409 255 255 255
-0.6586578177287126 0.4560420772546686 2.5188890643998243 255 255 255
-0.5978182647549559 0.8446298960089536 2.4821850570776327 255 255 255
0.0200510764993886 -0.5973391490770847 1.5262221076602511 255 255 255
-0.3178371484803457 -0.9002250731367663 2.4753157717923253 255 255 255
-0.4614804939886668 -0.6573317010728221 2.0300676086261760 255 255 255
-0.4107701029298223 -0.6139165004521879 2.0026552977740124 255 255 255
0.4518939741504074 -0.5834966378289037 2.0056850471847532 255 255 255
-0.2663262565149367 -0.4611979082909248 1.9027241892941014 255 255 255
-0.4336311360124934 -0.4858540304763149 2.0659107001024637 255 255 255
-0.5827592748302139 -0.1716563847836674 2.2949482384975814 255 255 255
-0.2972194241436172 0.0334194493241515 2.0328363300741490 255 255 255
-0.4996914234197574 0.0775877945177317 2.2526744565931471 255 255 255
-0.5582569109087352 0.0851318177001659 2.3328699166497699 255 255 255
-0.4596936162300125 0.3713540487968032 2.2669287687672153 255 255 255
-0.0926288000514804 0.5058289634168329 1.9090258262348361 255 255 255
-0.5739614591868900 0.4783153857447147 2.4346791267252037 255 255 255
-0.6051434749907454 0.4845730036367204 2.4677194714352133 255 255 255
-0.6114515461053589 0.6182524702774117 2.4952214932403427 255 255 255
-0.2957572548072260 0.7066862107698912 2.1714054052288025 255 255 255
-0.6309247174606298 0.9255667948750670 2.5867431655085511 255 255 255
-0.4723779924140565 -0.5156376565297989 2.0783485009801907 255 255 255
-0.1965862615491942 -0.3133388019042075 1.8269561200242441 255 255 255
-0.4001159167760298 -0.6828565303951826 1.9687969563485543 255 255 255
-0.5529223295988004 -0.1452344464533528 2.2750788876049057 255 255 255
-0.4399418724987116 -0.0683164508979612 2.1521448818604365 255 255 255
-0.3614514475077932 0.3095279339156205 2.1406245176619763 255 255 255
-0.6307138295873838 0.2632492324044629 2.4341476022297357 255 255 255
-0.4563475915341400 0.3743311799104632 2.2670559459297195 255 255 255
-0.2273754615516381 -0.4827749005839861 1.8344902453385039 255 255 255
-0.3277579491475251 -0.4922159276214996 1.9196330884784034 255 255 255
-0.0713456379701718 -0.3765943938496539 1.7533550085676630 255 255 255
-0.6461507160798732 0.5283623185606103 2.5168355084638065 255 255 255
-0.6243418952531599 -0.1210888739085867 2.3483762216966682 255 255 255
-0.6245248971984143 0.0040593955400636 2.3755292382984052 255 255 255
-0.1054820986336686 0.4308648926217291 1.9064188684085899 255 255 255
-0.3982382839511582 -0.5810801962600143 2.0082146158229479 255 255 255
-0.4911569411453326 -0.5542158982118192 2.0885234004780675 255 255 255
-0.2726081344166857 -0.3390966605751091 1.9245625718682007 255 255 255
-0.2719225139867838 -0.3233814425719705 1.9304951110250634 255 255 255
-0.1528862016344963 -0.1881142589946760 1.8293467571182482 255 255 255
-0.1590399312746544 -0.1845342936703649 1.7984490425037829 255 255 255
-0.5262879401226979 -0.2714900589858104 2.2080094206017455 255 255 255
-0.1679198954488508 -0.0339180968731392 1.8308028090361039 255 255 255
-0.0481129783082359 0.1193062154730011 1.7636999938034812 255 255 255
-0.1679010571431334 0.0849337613831578 1.9043228599017752 255 255 255
-0.6487686501788001 -0.0581237746613756 2.3868675769584060 255 255 255
-0.1182699754800054 0.4995529540364294 1.9509092146545886 255 255 255
-0.4667610803274780 0.4030653387726457 2.3020074740190850 255 255 255
-0.5689809189284318 0.4983081269841101 2.4281222613581921 255 255 255
-0.4127404593202222 0.5304094737398941 2.2723658144744654 255 255 255
-0.4465405330123957 0.5324555287444710 2.3040401755696962 255 255 255
-0.3965562865354464 0.5638080992012711 2.2908317359699275 255 255 255
-0.0994565651304686 -0.6829217228724098 1.5801127041941272 255 255 255
-0.5528699195406261 0.8584475985220266 2.4316502615559585 255 255 255
-0.3258292353748531 -0.6958385123919433 1.8579476375795034 255 255 255
-0.2882779757977794 -0.5335963982027840 1.8929507379477499 255 255 255
-0.2833670316718899 -0.4516439420329872 1.9109773817894615 255 255 255
-0.2818253996250117 -0.4284702726810314 1.9208897966529861 255 255 255
-0.2006034760750119 -0.2438227335448018 1.8493992138901794 255 255 255
-0.6064519687933547 -0.1788885931411954 2.3161587478234527 255 255 255
-0.4515405258705041 0.0010349737620207 2.1883193121926112 255 255 255
-0.2482809016592040 0.1761964677661360 2.0063700341170483 255 255 255
-0.5940339091251663 0.1466983629430878 2.3678059331886550 255 255 255
-0.5124305693637687 0.4221112622802980 2.3446337480103239 255 255 255
-0.6213046512303384 0.5348675154911466 2.4853180839162059 255 255 255
0.1718375721238153 -0.6606990167738130 1.6651417055286024 255 255 255
-0.1412602506944227 0.0931174164877803 1.8308711677587055 255 255 255
-0.1125407354735981 0.3690075920784747 1.9155807070843580 255 255 255
-0.4824712248328815 0.6368806625848540 2.3635047175418009 255 255 255
-0.2302000657281553 -0.5074801787331340 1.7887604978709017 255 255 255
-0.4294862615356365 -0.4867126365579028 2.0712521464692717 255 255 255
-0.6553868268382397 -0.3858794726566047 2.3120267162363510 255 255 255
-0.5329393132359002 -0.2598996110466043 2.2198302297756598 255 255 255
0.2702639657439239 0.0832469527019390 2.0048145447139545 255 255 255
-0.4265784194712410 -0.0808124614210399 2.1341198424158669 255 255 255
-0.4634703251012584 0.2644524261419188 2.2568733779500416 255 255 255
-0.0501696468830417 0.8282330210692930 1.9189225325842312 255 255 255
-0.4464420071852260 0.6991879357406461 2.3386356472995544 255 255 255
-0.5072112260665200 0.6754126737984949 2.3964863390655005 255 255 255
-0.1150800680946921 -0.2357219207857585 1.7596118344556235 255 255 255
-0.4852755997254592 0.7339458743288998 2.3794545722421185 255 255 255
-0.6011856507691595 0.8774283188946737 2.5320044645681388 255 255 255
0.0922677824412140 -0.2595100249995479 1.7991354863285607 255 255 255
-0.1742567570428835 -0.0247235013944604 1.8315599472545663 255 255 255
-0.0073932179526679 -0.3660562447291262 1.6267229259039517 255 255 255
-0.6188848745899982 0.6846237062883134 2.4832938418682318 255 255 255
-0.6222947010108375 -0.1208030108955747 2.3530359595488166 255 255 255
-0.5460209531448247 0.6488933485291790 2.4385783019574534 255 255 255
0.1720084448886856 -0.6563687506823418 1.6329816983501817 255 255 255
-0.4253523475302458 -0.4697394127948104 2.0714988533649557 255 255 255
0.3429740908290744 -0.2549664687634658 1.9815149368049028 255 255 255
-0.6008843361490346 -0.4165700767950453 2.2709583497543280 255 255 255
-0.6296732281300272 -0.3307078477790800 2.3179717013440619 255 255 255
-0.5832651526030492 -0.1724018085968831 2.2944967461493020 255 255 255
-0.0979567434513932 0.1167140463134749 1.8840593484614288 255 255 255
-0.3176502680368056 0.0363159545330931 2.0649398580044820 255 255 255
-0.0825522292444205 0.2135711690812756 1.8275725595178962 255 255 255
-0.0777678335701921 0.2570812417712407 1.8530361093661227 255 255 255
-0.4562663918368344 0.1203562713190275 2.2286570825007379 255 255 255
-0.5574974110085287 0.1089886676639580 2.3359747609597008 255 255 255
-0.4054228069826422 0.4015576338374016 2.2393565778796578 255 255 255
-0.3616772958842986 0.4312122076006872 2.1784076734316891 255 255 255
0.0035459726985509 -0.5071495993827000 1.5654259302163553 255 255 255
-0.3826456825719191 -0.5630258124867570 1.9862313888949217 255 255 255
-0.4328296301302217 -0.5095637937574051 2.0628945324810637 255 255 255
-0.5924778096469945 -0.5563139250030275 2.2238810918866987 255 255 255
