ply
format ascii 1.0
element vertex 685
property double x
property double y
property double z
property uchar red
property uchar green
property uchar blue
end_header
-0.0086985873692000 0.1748144126221396 1.8564346089245198 255 255 255
0.0991075545560394 0.1782109589529970 1.8448981131540396 255 255 255
0.1023631741656872 0.1812805319872766 1.8445851718283448 255 255 255
0.2024630604345425 0.1763588057717497 1.8330812011983022 255 255 255
0.1723492917449998 0.1780926009298889 1.8362422512651269 255 255 255
0.1713180360884623 0.1827192250642113 1.8359776223626270 255 255 255
0.0021758755988320 0.1900904645229651 1.8509481659461637 255 255 255
-0.0145369777418796 0.1958638687591705 1.8527231869585341 255 255 255
0.0828982836417285 0.1911797778801314 1.8420122805413954 255 255 255
0.0426462820438500 0.1945954243938146 1.8460781599290517 255 255 255
0.1513930257900205 0.1913010306793206 1.8342097347575175 255 255 255
0.1931489272981954 0.1909097062317677 1.8291324820300705 255 255 255
0.1352541697752099 0.1975667256300660 1.8346252916040866 255 255 255
-0.0339956720022907 0.2109637361165593 1.8484485465984957 255 255 255
0.0722174884039781 0.2066101463736287 1.8379972888058860 255 255 255
0.1175149039551537 0.2116041747613400 1.8319801409161163 255 255 255
0.1232047991946299 -0.2470772512125454 1.9778756867915752 255 255 255
0.0625328509087058 -0.2480811611086774 1.9851830186296580 255 255 255
-0.0453799935965621 -0.2501260700085381 1.9984688444079082 255 255 255
0.0829791803782947 -0.2319286477847678 1.9783197477320362 255 255 255
-0.0026612317010215 -0.2325154829511834 1.9882218077378750 255 255 255
0.0144933181888362 -0.2316197562138057 1.9868434172390037 255 255 255
0.2290604753410452 -0.2210623455352807 1.9579530447051647 255 255 255
0.2005075515174674 -0.2138203270645963 1.9592727530672307 255 255 255
0.1776518883048077 -0.2103354110687826 1.9611110661024429 255 255 255
0.1619574802050676 -0.2107938021993501 1.9627346240355001 255 255 255
0.2163962707589167 -0.2082514156344895 1.9555674208518139 255 255 255
0.2428204746528937 -0.2046608688827893 1.9503624174619665 255 255 255
0.1903058705702292 -0.2005617075338485 1.9545304019085137 255 255 255
0.0989115488969861 -0.1919433064962773 1.9633535093206300 255 255 255
0.0065595227823230 -0.1886150638966586 1.9726522715472050 255 255 255
0.1449353681529275 -0.1805822990832806 1.9544305774789590 255 255 255
0.1188584513966864 -0.1803457117403515 1.9571955568157409 255 255 255
0.0826079971503599 -0.1815113574121133 1.9621027764603882 255 255 255
0.2278401793195713 -0.1762302164125487 1.9429525303080735 255 255 255
0.0247172665655717 -0.1720661840991341 1.9646671019004920 255 255 255
0.1532906416940671 -0.1670414946752804 1.9478583075744247 255 255 255
0.1771439959832646 -0.1647514472334994 1.9457998769506604 255 255 255
0.0205210750638547 -0.1671870676887723 1.9635591460228297 255 255 255
0.1977880211874354 -0.1587701886511103 1.9413188782670741 255 255 255
0.0042508952747375 -0.1601335937622753 1.9641413957991181 255 255 255
0.0007793614530860 -0.1577418601851550 1.9629596659834831 255 255 255
0.1335478172260226 -0.1540976609835445 1.9472301544372941 255 255 255
-0.0210108540224558 -0.1525180012050119 1.9637000156387892 255 255 255
0.1214842215657891 -0.1489447497680059 1.9482548495006935 255 255 255
0.1343804630713030 -0.1432907291352187 1.9434112103833905 255 255 255
0.1696907076260561 -0.1379473145677285 1.9384967432055309 255 255 255
-0.0051905000405837 -0.1383530535622360 1.9572283343709569 255 255 255
0.2480802305008720 -0.1305114605436744 1.9400236213663522 255 255 255
0.0991845000279266 -0.1345770499480728 1.9461316829684969 255 255 255
0.0761982094984141 -0.1348608905755130 1.9473329558912442 255 255 255
0.0380253362502617 -0.1337736996996010 1.9510645074584481 255 255 255
0.1415853745814546 -0.1317656884772307 1.9386711302673532 255 255 255
0.0703308326560071 -0.1305473243280051 1.9464378226362395 255 255 255
0.0476726101994920 -0.1251370197368838 1.9475946076422854 255 255 255
0.1865354473528780 -0.1180645916803221 1.9305003399382787 255 255 255
0.0097581624222904 -0.1178363704090003 1.9513916685910910 255 255 255
-0.0117716973337054 -0.1176052550597926 1.9522758211602853 255 255 255
0.0054355541484332 -0.1177342522446159 1.9499177059765846 255 255 255
0.0536943172460417 -0.1121859015257369 1.9426472582080239 255 255 255
-0.0278878116697859 -0.1119924344991294 1.9513901841060848 255 255 255
0.1873140659566324 -0.1062236887765643 1.9253824284316758 255 255 255
0.2327658275867721 -0.0995016760056384 1.9198215609318972 255 255 255
0.1436058137542778 -0.0949723981724370 1.9278112812495491 255 255 255
0.1850401714072687 -0.0951526648838703 1.9226564951468248 255 255 255
-0.0282230414355567 -0.0933363787898132 1.9456687318155890 255 255 255
-0.0234805384877432 -0.0910396802222845 1.9443228415635285 255 255 255
0.0504273540115771 -0.0881175433641279 1.9423031473916363 255 255 255
0.1772099200699369 -0.0831076159390560 1.9196645240824930 255 255 255
0.2080541511000167 -0.0803662199299883 1.9154290479661962 255 255 255
0.1418666830886024 -0.0806236111502998 1.9227578906754808 255 255 255
-0.0212643789400574 -0.0814337183510778 1.9412488491905719 255 255 255
-0.0050302637783083 -0.0760296088976409 1.9373964079821202 255 255 255
0.0434304327385316 -0.0755520205381124 1.9323925770684771 255 255 255
-0.0528521974888893 -0.0749895413551472 1.9425386297007483 255 255 255
0.2327412323078417 -0.0663025153927710 1.9073506291039992 255 255 255
0.0328221892424681 -0.0666336012738706 1.9309169260528760 255 255 255
0.1332011135203965 -0.0611680277293013 1.9170790603930121 255 255 255
0.1597527179886522 -0.0616814080714854 1.9136644633668216 255 255 255
0.1525408206992307 -0.0591556526006051 1.9149564033882007 255 255 255
0.2128050582637031 -0.0571123769229382 1.9082406405843466 255 255 255
0.0256227321329550 -0.0541830399621003 1.9270623029790612 255 255 255
0.0660423655727114 -0.0512482468854599 1.9220156352642455 255 255 255
0.0403650289545129 -0.0362912139604743 1.9197572251290813 255 255 255
0.0278853662484551 -0.0355526874242464 1.9181268378306413 255 255 255
0.0532928802616333 -0.0346716197082939 1.9180184452196727 255 255 255
0.0825604743841719 -0.0341560932178993 1.9141296018430725 255 255 255
0.0415992177391286 -0.0331692006090227 1.9172531584069556 255 255 255
0.1201953933728388 -0.0296449138321493 1.8976767283436704 255 255 255
0.0671876412336441 -0.0241613411863717 1.9133322048414987 255 255 255
0.2175811753116186 -0.0190088978191860 1.8948825200121977 255 255 255
0.1909558122976405 -0.0154790251220840 1.8963008474645715 255 255 255
0.1767144037512072 -0.0096695938359082 1.8958297403277284 255 255 255
0.2126829701648307 -0.0071077764623952 1.8901328164731961 255 255 255
-0.0408619896160717 -0.0025081976617100 1.9183780603299985 255 255 255
0.1177056006592687 -0.0037477378255586 1.9013973798036581 255 255 255
0.1464047587467148 -0.0032187038512732 1.8979124958795075 255 255 255
0.0045849139534027 -0.0044788646041976 1.9068394990836603 255 255 255
0.1247982186296701 -0.0026089155874747 1.8988637366247421 255 255 255
-0.0486600809210833 0.0005624017142690 1.9178381483459497 255 255 255
0.0001223228403980 0.0011220131995516 1.9123828011596138 255 255 255
0.1194847132499699 0.0128925000793005 1.8956759676069677 255 255 255
0.1316389440133525 0.0150778171432555 1.8938707599712599 255 255 255
0.0098632146136006 0.0161107824802063 1.9077616447690606 255 255 255
0.2291085224082998 0.0172433446762512 1.8820231806772068 255 255 255
-0.0184551587975116 0.0205559859909878 1.9079011663008230 255 255 255
-0.0258635068990155 0.0299154450512700 1.9051786340504395 255 255 255
0.0187535402576803 0.0304322827211037 1.9010018610768364 255 255 255
-0.0501005580224654 0.0384763189845281 1.9068428033144671 255 255 255
0.0451445035391034 0.0485419021201408 1.8928311303647889 255 255 255
0.1132933022017641 0.0472260475287589 1.8847575773704879 255 255 255
0.1816646710427325 0.0473323484866248 1.8770420066163886 255 255 255
-0.0410045489223481 0.0508953464889732 1.9006628044129368 255 255 255
-0.0025745596658210 0.0527683101448676 1.8957161942810241 255 255 255
0.0252833796210079 0.0534735700468147 1.8925020172487068 255 255 255
0.1109768627286536 0.0530064218245894 1.8839071652829347 255 255 255
-0.0309366959691548 0.0604741014094674 1.8963243616085950 255 255 255
-0.0192245340512446 0.0627744517506053 1.8946614647127022 255 255 255
0.1282057010534026 0.0602258020860296 1.8789239543655274 255 255 255
0.1033442625959025 0.0620220320851730 1.8823168716653571 255 255 255
0.1973569025960216 0.0605972515941238 1.8708881926996241 255 255 255
0.0943838577824447 0.0630673414389520 1.8816105159698102 255 255 255
0.0207719006837999 0.0661043523390694 1.8894335173933885 255 255 255
0.1847735894240108 0.0637960268644679 1.8716233614476856 255 255 255
0.1439745484799788 0.0799472421825929 1.8710350705533916 255 255 255
0.2159026807809141 0.0827611434810516 1.8621178608255065 255 255 255
0.0170177629785133 0.0872004561314945 1.8827656800272834 255 255 255
0.1446600780876643 0.0867725601327705 1.8682339910343861 255 255 255
0.1971977891060703 0.0871512616635304 1.8630990012454589 255 255 255
0.0448885085878001 0.0902662077442677 1.8786496326432189 255 255 255
0.1035132914091172 0.0949901494955512 1.8709158276816189 255 255 255
-0.0698248956306355 0.1017070601225933 1.8881791351461135 255 255 255
0.1052492799927585 0.0984276622466718 1.8696874862794584 255 255 255
0.1638310513956069 0.0978809585222757 1.8629448497015728 255 255 255
0.0674507862213465 0.1029156085215435 1.8721875774103567 255 255 255
0.2246053261042291 0.1094979465500836 1.8514537699791662 255 255 255
0.0954959709840910 0.1172831941956237 1.8652596896592288 255 255 255
0.0460018101317751 0.1227668747892136 1.8681748819003796 255 255 255
0.1570586045278846 0.1268702776451969 1.8546324932305978 255 255 255
0.0307365752626931 0.1370638399111606 1.8657330035464010 255 255 255
0.0885923137045834 0.1386867309366631 1.8585378157655459 255 255 255
0.1551044748656791 0.1389357655667127 1.8513256968492025 255 255 255
0.0230994906438981 0.1433290505960088 1.8641604693284748 255 255 255
0.1781393632453963 0.1411082625106701 1.8471731984140733 255 255 255
0.1908819447890223 0.1369070616105982 1.8436197673849213 255 255 255
0.2126159557982534 0.1459512549038209 1.8427908138166273 255 255 255
0.0404134065633661 0.1552978328250088 1.8585253191036510 255 255 255
0.1935734546614576 0.1524118076487344 1.8415888770887072 255 255 255
0.0811741614340166 0.1607470729072298 1.8547466986571504 255 255 255
0.1430172693359548 0.1592287620917645 1.8460930811138709 255 255 255
0.1153070147880992 0.1681052196127411 1.8461731098728222 255 255 255
-0.0659110795801565 0.1791184514654596 1.8632939712062146 255 255 255
0.1583177440109864 0.1723060784433961 1.8398383389734443 255 255 255
0.1249473945624748 0.1730132322987892 1.8428903734036339 255 255 255
-0.0597277340215794 0.1814262593522715 1.8616134529558153 255 255 255
0.1740575518370864 0.1748366316809531 1.8371047056600951 255 255 255
-0.0546926169417595 0.1840882153136221 1.8593450758562549 255 255 255
0.1492288605101759 0.1763259219867169 1.8391111131403504 255 255 255
0.1196577471373852 0.1811827845489077 1.8406367296944905 255 255 255
0.2036724094186557 0.1836223779778257 1.8327624826977025 255 255 255
0.2091377674969639 0.1875730265178852 1.8281572966194197 255 255 255
-0.0370839685557768 0.1986544024991197 1.8528034384296035 255 255 255
-0.0612620597186640 0.2040765917716546 1.8541275677746161 255 255 255
0.0282376951234071 0.2024969229889958 1.8442133487265355 255 255 255
-0.0223351065640002 0.2075880539650236 1.8486297644815597 255 255 255
0.1896010253752405 0.2031666497312788 1.8254786139611174 255 255 255
0.0258810814230639 0.2132055478601508 1.8423550653182494 255 255 255
0.0204341026738175 -0.2464911253556126 1.9894969454694174 255 255 255
0.0221019650688792 -0.2389387917832182 1.9846975994468865 255 255 255
0.2386007324867432 -0.2214547459297513 1.9569769180462133 255 255 255
0.2066481226647912 -0.2180288803858769 1.9596438822618110 255 255 255
0.2358470926400607 -0.1966075560972269 1.9444535094547382 255 255 255
0.0745718315959089 -0.1961295189024386 1.9680231839202171 255 255 255
0.0268210151710609 -0.1967086962829582 1.9715052422158026 255 255 255
0.0244484261561141 -0.1885558582929279 1.9689570368837894 255 255 255
-0.0339461471869684 -0.1884659111815321 1.9789347086901945 255 255 255
0.2323078522766213 -0.1797103306919415 1.9450892923559548 255 255 255
0.1954988925296769 -0.1646797907552190 1.9431279762618452 255 255 255
0.0054526200579225 -0.1652757491094713 1.9692031432453949 255 255 255
0.2241877909584087 -0.1436824229422578 1.9342292987983152 255 255 255
0.2344000077700086 -0.1428878420869520 1.9323049423677423 255 255 255
0.0493596172770046 -0.1463969681641347 1.9518382714042468 255 255 255
0.2073868986446674 -0.1392177142235693 1.9340027581751933 255 255 255
0.0411336407106287 -0.1304316520514849 1.9497401239047720 255 255 255
0.0082962992832017 -0.1303125615053828 1.9519508795420815 255 255 255
0.1973598203873950 -0.1234796046311398 1.9296352142625430 255 255 255
0.0969881839505828 -0.1143102014822447 1.9378077502474875 255 255 255
0.2018089200619606 -0.0970423302441875 1.9209410632491708 255 255 255
-0.0529991721579256 -0.0988463964864282 1.9500144744660337 255 255 255
0.1189726865436455 -0.0919374371557693 1.9287711489881927 255 255 255
0.0811774683526587 -0.0907428300361454 1.9330921746805207 255 255 255
0.1460312923936100 -0.0808222358615023 1.9222411538677564 255 255 255
0.1587937114967577 -0.0655855342955556 1.9163549372786166 255 255 255
0.0526309032621946 -0.0561976879621253 1.9253739239930727 255 255 255
0.0187306735520888 -0.0487859443757986 1.9261149987008255 255 255 255
0.2416321643910537 -0.0297263634360632 1.8969532694769926 255 255 255
0.0848365274062453 -0.0301289396505986 1.9128741404258722 255 255 255
0.2111620633575990 -0.0036733672212836 1.8904041964863829 255 255 255
0.0328898019380708 0.0047034520803757 1.9075153311809214 255 255 255
0.1873186945992904 0.0048642789857696 1.8903400190776161 255 255 255
0.1436482146434577 0.0094493960510289 1.8945140294484197 255 255 255
0.2338962491369880 0.0250690297329692 1.8796356232227112 255 255 255
0.2112045802764095 0.0282254772636232 1.8803234109279048 255 255 255
0.2265598550492758 0.0299863350692782 1.8778110502509264 255 255 255
0.0846114168164607 0.0454690527526052 1.8885453182721070 255 255 255
0.1737467965853874 0.0441986738185030 1.8791709058447310 255 255 255
0.0821650847745646 0.0527053523816186 1.8852534648975485 255 255 255
0.1955164717030522 0.0518685028148616 1.8753176266754714 255 255 255
-0.3568618829779666 0.0798580836947629 1.9714008874829787 255 255 255
0.2025375787934358 0.0648611396366459 1.8720293740248568 255 255 255
-0.0202301212130199 0.0680965697543319 1.8943822834749788 255 255 255
0.0574867259770560 0.0684863037514893 1.8864617770537944 255 255 255
0.2187031551909158 0.0674982441955816 1.8666560677049286 255 255 255
0.0032430322205346 0.1145338231071329 1.8759385546749914 255 255 255
0.0865790803214509 0.1140352024751157 1.8662249479307274 255 255 255
0.1923304351745005 0.1906355073210091 1.8291855833698769 255 255 255
0.1767331811307105 -0.2510783858609871 1.9733331530652172 255 255 255
0.0958758752971334 -0.2537896827613670 1.9839561874153375 255 255 255
0.0864552222365602 -0.2531019254923985 1.9834915880315578 255 255 255
0.0919985487803210 -0.2529829352120764 1.9835429080720672 255 255 255
0.2092062769623073 -0.2482506632008561 1.9691830316271428 255 255 255
0.1582804042885959 -0.2501647907811961 1.9752702406281974 255 255 255
0.1528340054297010 -0.2493210012267930 1.9768733323225920 255 255 255
0.2079305436920822 -0.2466277845335769 1.9689254001381689 255 255 255
-0.0346650633144650 -0.2552008437697136 1.9979221959438509 255 255 255
-0.0064175792766235 -0.2541435567126338 1.9942693249689316 255 255 255
0.1441668635745916 -0.2479395923476386 1.9762655791131736 255 255 255
0.0552246362109194 -0.2493131797427608 1.9864951912556341 255 255 255
0.1638096960977968 -0.2447718648824906 1.9724239869804530 255 255 255
0.1923279413798755 -0.2437765326921162 1.9695544088586843 255 255 255
0.1361308308330216 -0.2447972028400346 1.9760329829019589 255 255 255
-0.0087226299493477 -0.2496861357995369 1.9942168606540662 255 255 255
0.1378349392871243 -0.2420348944887458 1.9748631832314780 255 255 255
0.0154718188071943 -0.2449097004796409 1.9892135172772019 255 255 255
-0.0488904140110424 -0.2479169914424763 1.9990960324696159 255 255 255
0.1275434314031019 -0.2395066846813680 1.9739328513639207 255 255 255
0.1614657109359219 -0.2372237001692594 1.9705097116806090 255 255 255
0.1944290198551073 -0.2352875892612127 1.9663159481981758 255 255 255
0.0038343780612824 -0.2413452308108824 1.9895649926246053 255 255 255
0.0836951529212370 -0.2380095046877464 1.9790198841058051 255 255 255
0.1793668089076430 -0.2339480801673521 1.9683178606014433 255 255 255
0.2418292847066907 -0.2317805297338373 1.9592300621341936 255 255 255
0.1143066106717261 -0.2353949808040992 1.9755238442443650 255 255 255
0.0207143098113854 -0.2389765284864247 1.9869231868072021 255 255 255
0.1007302632121791 -0.2348413531924457 1.9772862210646647 255 255 255
0.1320871979007139 -0.2336065843990942 1.9736165595212833 255 255 255
0.1512288121572887 -0.2316101204407657 1.9700159077227530 255 255 255
0.2446209200837961 -0.2289680866569758 1.9596581946402223 255 255 255
0.0437280340603381 -0.2344651503384083 1.9834206030560873 255 255 255
0.0042465051807992 -0.2361539996512774 1.9881808087688879 255 255 255
0.0898835229046573 -0.2313073108391006 1.9767396722841140 255 255 255
0.0739242520801122 -0.2294816843593059 1.9776434337505782 255 255 255
-0.0312154583522752 -0.2228199575233266 1.9875949053190924 255 255 255
0.1822560303901852 -0.2150164387256805 1.9616705607946905 255 255 255
0.0754634763048776 -0.2185632619217923 1.9738348493044153 255 255 255
0.1721317239671230 -0.2139959118328938 1.9625431071024195 255 255 255
0.0564578426608906 -0.2166615566193424 1.9758435597348107 255 255 255
-0.0522866501754908 -0.2563403974396734 2.0783852528823807 255 255 255
0.0433956613610100 -0.2148673051111336 1.9767357081965165 255 255 255
0.0806047783506507 -0.2132206075414746 1.9716151673702194 255 255 255
-0.0340190518675061 -0.2175754134317391 1.9863758303167669 255 255 255
0.0719013617672872 -0.2130884943065160 1.9728522856994326 255 255 255
-0.0547782492019322 -0.2167458632266527 1.9880832237012231 255 255 255
0.0557460587992078 -0.2125822257704220 1.9740370501170488 255 255 255
0.1787709533211164 -0.2080508031030388 1.9593940138663051 255 255 255
0.0403849465449151 -0.2121991507841426 1.9767147969370322 255 255 255
-0.0526072271395859 -0.2148123849979529 1.9872673211899414 255 255 255
0.2357379143530149 -0.2048547569018047 1.9509614734190208 255 255 255
-0.0220256880812508 -0.2127332311310681 1.9832594044473946 255 255 255
0.1861518445373829 -0.2040890114728984 1.9569755887732692 255 255 255
0.2149480211228831 -0.2033545258986695 1.9527333933591138 255 255 255
0.1784172850746901 -0.2036287480867089 1.9575979322760317 255 255 255
0.0122064283449097 -0.2084513953878027 1.9793976980622099 255 255 255
0.2378610056423405 -0.2002207365840569 1.9500948841176133 255 255 255
0.0804166528625812 -0.2047361826346084 1.9693547546272590 255 255 255
0.1979198595853078 -0.2003620020429409 1.9551387088671177 255 255 255
0.1018045445786626 -0.2028488446055926 1.9662526039294024 255 255 255
0.2253732697646456 -0.1982380888619601 1.9513562709035419 255 255 255
0.2212831857099893 -0.1986076618170705 1.9518599650003772 255 255 255
0.1230151527571768 -0.2005993065923254 1.9631826432130568 255 255 255
-0.0090479514605222 -0.2042672573170137 1.9786183928587491 255 255 255
0.0938552945396331 -0.2001530884303793 1.9663772437526905 255 255 255
0.1531211490817728 -0.1980874358486524 1.9592001529083891 255 255 255
-0.0043239471504100 -0.2017902963803041 1.9776911069199841 255 255 255
0.0378326370243559 -0.2001934973505204 1.9733833562608440 255 255 255
0.1239257644946292 -0.1978662005663219 1.9622129148252387 255 255 255
-0.0075907512723141 -0.2001717186305372 1.9779606054924121 255 255 255
0.2249944626691942 -0.1932287730776423 1.9499928557693593 255 255 255
-0.0114975959850663 -0.2001002005491627 1.9781274251447813 255 255 255
-0.0034000255851590 -0.1988587870997227 1.9762208833739852 255 255 255
0.2016559386406565 -0.1911556226007258 1.9514853214002930 255 255 255
0.1514039702391452 -0.1918546992973082 1.9574568326960406 255 255 255
0.2109723070476957 -0.1895251427383989 1.9490963480237458 255 255 255
0.1339303127541136 -0.1920222209509737 1.9592575976311624 255 255 255
-0.0000382884616145 -0.1948013953087936 1.9751080712915456 255 255 255
0.0955132934606049 -0.1914328962025795 1.9637637938178085 255 255 255
-0.0475628054370754 -0.1956187023568496 1.9811947928161731 255 255 255
0.0698167804145835 -0.1924248195770666 1.9666080857548693 255 255 255
0.0987089279061437 -0.1909948354733957 1.9632342341670204 255 255 255
0.1468144590042875 -0.1891126275693122 1.9564855258083762 255 255 255
0.0134100612392283 -0.1913089341074643 1.9714618332957103 255 255 255
0.1614659158613811 -0.1857233980738560 1.9533960514747513 255 255 255
-0.0435733186959943 -0.1908153757792372 1.9785816560348657 255 255 255
0.0526293995985830 -0.1872855953944010 1.9670008101823497 255 255 255
0.1187953136728499 -0.1845471814690328 1.9593273387813710 255 255 255
-0.0455408367489669 -0.1886798433263742 1.9784288618748689 255 255 255
-0.0600700311876352 -0.1871857694113059 1.9789059116417755 255 255 255
-0.0022398547325333 -0.1835291525039179 1.9721207281425990 255 255 255
0.0131765478904778 -0.1833503468586085 1.9705044906421867 255 255 255
0.1218369437511699 -0.1802899802805773 1.9572297279992552 255 255 255
0.1067393883434451 -0.1806435463483078 1.9590484668466033 255 255 255
-0.0036130417097904 -0.1826749032127972 1.9724810118388141 255 255 255
0.2208851097186265 -0.1745062912952529 1.9427071939486646 255 255 255
0.1800251508199171 -0.1737383292843627 1.9486915918186618 255 255 255
0.1238455859759857 -0.1750860949361772 1.9549487079306580 255 255 255
-0.0435582210040086 -0.1797285865681664 1.9763235190753281 255 255 255
0.1999856307788734 -0.1727728721934383 1.9453090176671952 255 255 255
0.2110179920933652 -0.1713177512715498 1.9441743056678411 255 255 255
0.0586503184793896 -0.1750058152172169 1.9615385519954738 255 255 255
0.1417919378125068 -0.1727630753254093 1.9518395393124175 255 255 255
0.1465919727378024 -0.1722353943778987 1.9502306252737758 255 255 255
0.1931363991983863 -0.1694715742034320 1.9458034424603152 255 255 255
-0.0635196632351209 -0.1752841995997179 1.9753188187172452 255 255 255
0.2254254799311521 -0.1675964618799331 1.9411705596079933 255 255 255
0.2130177977717178 -0.1674608852321317 1.9430579106953942 255 255 255
0.0720645590428695 -0.1704573160652036 1.9590721823055384 255 255 255
0.2040970889036009 -0.1659618231322139 1.9432879887208845 255 255 255
0.1075848836588511 -0.1673200996545560 1.9542383563035823 255 255 255
0.2387250431209278 -0.1625954533551447 1.9389098988723283 255 255 255
0.0770884099271236 -0.1670894051979748 1.9576727675597008 255 255 255
0.2323665960212260 -0.1630608693073639 1.9393683111887121 255 255 255
0.1479725672199170 -0.1650827508872356 1.9499657648404325 255 255 255
0.0524285496732171 -0.1660136197709152 1.9602622494586903 255 255 255
0.1456260181107840 -0.1627087656109667 1.9483119120655559 255 255 255
0.2091048595634586 -0.1607052732505891 1.9407931451148102 255 255 255
0.0148582972842757 -0.1644249786441445 1.9649006542025997 255 255 255
0.0756034769334448 -0.1626756819490933 1.9565542501357771 255 255 255
0.0594335394089764 -0.1623748577663144 1.9577059968219417 255 255 255
0.0189896835900565 -0.1619280731673812 1.9621122691668154 255 255 255
0.2168308476954888 -0.1566136009510225 1.9377235096857728 255 255 255
-0.0320451391236161 -0.1621471600903154 1.9681367615927274 255 255 255
0.1268271521403532 -0.1572121462818384 1.9490915884242206 255 255 255
0.0591923004652750 -0.1583387789786943 1.9564772447928060 255 255 255
-0.0335125153032486 -0.1599843995334844 1.9679135113948842 255 255 255
0.1130194264184434 -0.1565550104178683 1.9501922663974740 255 255 255
0.1932446122191380 -0.1543762768923087 1.9403445608178651 255 255 255
-0.0497481965202424 -0.1589045317443130 1.9689192436327152 255 255 255
0.1018384282318237 -0.1542976601568756 1.9507303776926150 255 255 255
0.2243377263587796 -0.1519280688750747 1.9368368314608304 255 255 255
0.0354138123437242 -0.1551668632570745 1.9575245163821215 255 255 255
0.1444182626840078 -0.1506813657907135 1.9455165788438418 255 255 255
0.0825328660395468 -0.1506884974522560 1.9513930634026244 255 255 255
0.1482314159912450 -0.1487510525093598 1.9442319307205551 255 255 255
0.1235044282852087 -0.1469857899279082 1.9464261670705438 255 255 255
0.0031106350061408 -0.1494213319117653 1.9599151917149789 255 255 255
-0.0026693498958710 -0.1473365531626822 1.9602236217316826 255 255 255
0.2407722589326939 -0.1416922678930383 1.9407440195476651 255 255 255
0.0014492248153781 -0.1464069080345589 1.9598471149902561 255 255 255
0.0050741903791234 -0.1456939464564840 1.9588915336317485 255 255 255
0.0086951884996842 -0.1456695347333419 1.9580703980304450 255 255 255
0.0911222490841934 -0.1444651194973479 1.9483810077754276 255 255 255
-0.0580695219698419 -0.1453660413567233 1.9659094332854645 255 255 255
0.0908751822203839 -0.1419489850245954 1.9479792630166270 255 255 255
0.1308645876999028 -0.1400793224491524 1.9429477804891970 255 255 255
-0.0633891012053263 -0.1426508867349718 1.9650974748879264 255 255 255
-0.0521435640874814 -0.1415926165501999 1.9644682495450008 255 255 255
0.0000394381632976 -0.1391489750896727 1.9574274050338769 255 255 255
0.1163044681562460 -0.1345107928145606 1.9420216313351304 255 255 255
0.0936122762910410 -0.1342877084021676 1.9453651765164750 255 255 255
0.1187296751323363 -0.1325510814146917 1.9421280322339811 255 255 255
0.0421720036212234 -0.1338057902567857 1.9507727111088118 255 255 255
0.1090591249858659 -0.1319930065449256 1.9436198780920702 255 255 255
0.1149134490912141 -0.1320887810019725 1.9424225171282468 255 255 255
0.0639506229469156 -0.1316432543957261 1.9478223586500611 255 255 255
0.1881284269524430 -0.1285968303377099 1.9327134431696784 255 255 255
0.0001218519956812 -0.1316676951854522 1.9546993754497639 255 255 255
-0.0253284496989631 -0.1311670182647760 1.9574555913694598 255 255 255
0.2094493183706001 -0.1246326970269069 1.9295457491174859 255 255 255
0.2224778466634465 -0.1235091605070611 1.9274315911257922 255 255 255
0.1447156853039955 -0.1245043012460245 1.9370825802288625 255 255 255
0.1414249912893226 -0.1213309760940855 1.9351154994717503 255 255 255
-0.0571199723964285 -0.1254907699477614 1.9592134166905133 255 255 255
0.0889774129970584 -0.1224552065534247 1.9422339284252619 255 255 255
0.2244595925452693 -0.1196749040663732 1.9260581041931601 255 255 255
0.1953476467913684 -0.1202176621217776 1.9289421901362118 255 255 255
0.2270447689602175 -0.1181894585703431 1.9256261563557473 255 255 255
0.0311279677001961 -0.1221207150937540 1.9461755075638276 255 255 255
0.0911942696070800 -0.1194537976690003 1.9413420054668977 255 255 255
-0.0194631348174910 -0.1203623727786323 1.9532158959547301 255 255 255
0.0129021266084295 -0.1198183127145900 1.9492957740782724 255 255 255
-0.0555343422744187 -0.1207205330722664 1.9572100359780267 255 255 255
0.0401984662954787 -0.1191811638497645 1.9470268188801421 255 255 255
-0.0349999974764216 -0.1196550973579048 1.9549019514629400 255 255 255
0.2115785557486252 -0.1152056808159851 1.9262885299158636 255 255 255
-0.0212376513433350 -0.1181071681524964 1.9529802370904115 255 255 255
0.1416395398669986 -0.1147954153114931 1.9340078661797695 255 255 255
0.1284378058470597 -0.1144674344986187 1.9346291997163680 255 255 255
0.1388127681885516 -0.1123634681522678 1.9334186383281668 255 255 255
-0.0388392523033019 -0.1143517293744506 1.9538369048716855 255 255 255
0.0796978786007042 -0.1123628464692843 1.9396612063819649 255 255 255
0.0580349970786933 -0.1123072018926941 1.9416463562384418 255 255 255
-0.0474385307922212 -0.1120502127834487 1.9544205088468027 255 255 255
0.0815815114823835 -0.1100823483509152 1.9388022470996162 255 255 255
0.2279434641883125 -0.1053375442543114 1.9206002102181854 255 255 255
0.1908335636094947 -0.1009910361993978 1.9234382668933270 255 255 255
0.2071245357008937 -0.0988623575859759 1.9205992624163226 255 255 255
0.0120587495868062 -0.1014326178359389 1.9439242152386298 255 255 255
0.0263458162550694 -0.1010575913365781 1.9417641431664405 255 255 255
0.0655084753121731 -0.0995948077072876 1.9370991638301929 255 255 255
0.0702495992747791 -0.0983772667741090 1.9364829460816022 255 255 255
0.2288854446262576 -0.0962565107601421 1.9177383104706962 255 255 255
-0.0144680246423774 -0.0966738743183971 1.9452947378511691 255 255 255
0.0473641013371415 -0.0960330147286217 1.9378270214587801 255 255 255
0.1679514321938442 -0.0946613954884081 1.9238229120703236 255 255 255
0.1149973047746317 -0.0935375448807259 1.9298121324860373 255 255 255
0.1605917578114875 -0.0912525910346014 1.9239657310691962 255 255 255
0.2107949138601111 -0.0901514539377311 1.9180575080699338 255 255 255
0.1359512753263692 -0.0894589702348085 1.9261378046308444 255 255 255
-0.0398454788486752 -0.0914517871976652 1.9462527826751479 255 255 255
-0.0134041215625709 -0.0864274068539152 1.9414531915302582 255 255 255
0.0513433872725196 -0.0844650595654945 1.9335047757836530 255 255 255
-0.0048307344502998 -0.0848586954052437 1.9410275635242904 255 255 255
0.1836550696026560 -0.0830568857516347 1.9181703116931939 255 255 255
0.0951907588729415 -0.0834240711074569 1.9281733817564390 255 255 255
0.1040928114441599 -0.0832800902524720 1.9272864853592484 255 255 255
0.0313262679822257 -0.0835784238538151 1.9359676988040673 255 255 255
-0.0446423647691245 -0.0831345160184104 1.9447190074774388 255 255 255
0.1462168007611844 -0.0809484931862521 1.9226341889782610 255 255 255
0.0750767394786425 -0.0811322661302627 1.9306163787141781 255 255 255
-0.0125057772024527 -0.0811493512897744 1.9401509051111656 255 255 255
0.1928038781331178 -0.0796125963087553 1.9166543357242842 255 255 255
0.2083129101383283 -0.0775372201591702 1.9140985484727806 255 255 255
-0.0151390963694862 -0.0783012635684828 1.9402604503809187 255 255 255
-0.0528360874369776 -0.0789701683317795 1.9435976735705072 255 255 255
0.2185618284193218 -0.0760520333353343 1.9126078340599726 255 255 255
0.2368507910333477 -0.0755410475793199 1.9099152520927092 255 255 255
-0.0600407380628974 -0.0777454411652116 1.9443819218290375 255 255 255
-0.0141811883797112 -0.0756000737711759 1.9383101691925777 255 255 255
0.2142805317384167 -0.0695511546916403 1.9109005160158361 255 255 255
0.1468326141149161 -0.0692271716942168 1.9175881187629891 255 255 255
-0.0115433144241992 -0.0687731649189383 1.9364760444790416 255 255 255
0.2138334352134255 -0.0673177735185735 1.9101191234571657 255 255 255
0.1254427421913666 -0.0669586419923769 1.9200116934186751 255 255 255
0.1689062117427396 -0.0666736695593864 1.9153989219679586 255 255 255
0.1834323464330723 -0.0661029223742888 1.9133064001168272 255 255 255
0.2110098907790867 -0.0660901131846652 1.9102534910418285 255 255 255
0.1920661373955248 -0.0658645717667943 1.9128994418874719 255 255 255
0.0572994749466975 -0.0663613576984798 1.9270202829543450 255 255 255
0.0769877392006260 -0.0658425175523333 1.9261176948469818 255 255 255
-0.0655818830684687 -0.0663273835268916 1.9415081764879374 255 255 255
0.0527159862732591 -0.0647320307340624 1.9276120135950117 255 255 255
0.0849523209877985 -0.0639178299222514 1.9240690041422468 255 255 255
0.1378500160350971 -0.0632923010289392 1.9179798790217966 255 255 255
0.0770822548908887 -0.0629907891739265 1.9245403343803762 255 255 255
0.1273190346207489 -0.0641399099576181 1.9167904022192097 255 255 255
0.1810213563803345 -0.0590185014216082 1.9119824837961268 255 255 255
0.0567263004560474 -0.0593752872230708 1.9254795468565589 255 255 255
-0.0179539220454235 -0.0591991292931208 1.9339743310961377 255 255 255
0.2020915516090174 -0.0579790158173834 1.9088795070475317 255 255 255
-0.0344727724083811 -0.0587799995639597 1.9354788427672671 255 255 255
0.0974086039812745 -0.0538756495696566 1.9187976697436078 255 255 255
0.0728797594320065 -0.0531774471233439 1.9212374803344741 255 255 255
0.1910905844002349 -0.0524996427315538 1.9082959602732892 255 255 255
0.1890634216692422 -0.0512382007604661 1.9082965176708304 255 255 255
0.0972278381756171 -0.0510947285869388 1.9186414716232214 255 255 255
0.1811341551239058 -0.0500658926206388 1.9093308922175858 255 255 255
0.0036033945996750 -0.0504208241226962 1.9288119414887914 255 255 255
-0.0493396221804852 -0.0501637308977787 1.9340471352547899 255 255 255
0.0847785652255615 -0.0493319756917767 1.9188015733615140 255 255 255
0.0954340980601627 -0.0481348135322341 1.9178201164359816 255 255 255
0.1850361634456812 -0.0455133078264103 1.9061537766398837 255 255 255
0.1474564479405256 -0.0437184452019839 1.9102578537309309 255 255 255
0.1048685215012788 -0.0456595353573106 1.9071296024512101 255 255 255
0.0806133667379956 -0.0426046498886075 1.9163282501013796 255 255 255
0.0286814974435476 -0.0378316144227229 1.9215135870805673 255 255 255
0.0558922713578163 -0.0369710820731131 1.9191831782507625 255 255 255
0.1500614398451718 -0.0365814924381671 1.9080674544572362 255 255 255
0.2384806571315998 -0.0370994585618885 1.8979921866145837 255 255 255
0.0945641252034133 -0.0362996923526427 1.9138608585068795 255 255 255
-0.0332499341165351 -0.0346756997146208 1.9295059583780931 255 255 255
0.1331160746643670 -0.0357710734791281 1.9098805253925808 255 255 255
0.1723579451573922 -0.0353096067767034 1.9058935481604120 255 255 255
0.1840011937899790 -0.0350930621620344 1.9044643329776809 255 255 255
-0.0500651435041845 -0.0352727300245884 1.9304133121602129 255 255 255
0.0810926790861783 -0.0344821402854574 1.9156384157978463 255 255 255
0.1737708792982193 -0.0332827154515689 1.9050766030624420 255 255 255
0.0004652701752041 -0.0324512661334753 1.9230013298769042 255 255 255
-0.0589513595194706 -0.0292231918646624 1.9288800022731964 255 255 255
0.1991308696840655 -0.0288759550265798 1.9001006915951564 255 255 255
0.0859582606925260 -0.0266650869886629 1.9118286786151160 255 255 255
-0.0508847210804374 -0.0243268474281646 1.9264224330061057 255 255 255
0.1006577914807449 -0.0246848237174357 1.9083964377989986 255 255 255
-0.0651931665665578 -0.0240591414470082 1.9284881931551632 255 255 255
0.1029786202505609 -0.0233437146422073 1.9082232360871627 255 255 255
0.1239229308886438 -0.0241893926904528 1.9048934631369931 255 255 255
0.0758438925781659 -0.0210120547853156 1.9106989333129176 255 255 255
-0.0144786300772580 -0.0204250032752844 1.9204249101011466 255 255 255
0.1350578955773702 -0.0192400103543018 1.9040624526808454 255 255 255
0.1650118322272398 -0.0184282023711897 1.9004495141167368 255 255 255
0.1557698217859125 -0.0179998571217186 1.9012267421779505 255 255 255
0.1695600678881517 -0.0184443381322090 1.8998418266583670 255 255 255
0.1385116077496829 -0.0176312005286849 1.9029806143776202 255 255 255
0.2220412386036461 -0.0174687122070262 1.8940888966720659 255 255 255
0.1661564959277751 -0.0158493537683591 1.8994555971233558 255 255 255
0.0436014868029155 -0.0145751591075944 1.9136370567440348 255 255 255
0.1399977614518129 -0.0158783336916692 1.9014909728940541 255 255 255
0.1819022403604134 -0.0150209692579946 1.8969554821002568 255 255 255
-0.0070966522887381 -0.0099725812500508 1.9170654066067589 255 255 255
0.1153813277673086 -0.0080349190239550 1.9029858777327737 255 255 255
0.1174226489800532 -0.0072789156964781 1.9020527269738068 255 255 255
0.0994062441146708 -0.0064236754863631 1.9035523796889713 255 255 255
0.1782136151248572 -0.0066865400280927 1.8952286981890882 255 255 255
0.0258066430261648 -0.0048091118960607 1.9114342859260383 255 255 255
0.0897922869604377 -0.0049427954145416 1.9037191317520090 255 255 255
0.1178199868520711 -0.0039070937031194 1.9015036416912547 255 255 255
0.1546200669538811 -0.0035843310581418 1.8966046979419264 255 255 255
0.0736638656214054 -0.0023949552514917 1.9055323112027094 255 255 255
0.0933676183013841 -0.0027086612730605 1.9029014529939108 255 255 255
0.1119435642620044 -0.0028639571494624 1.9010290671550898 255 255 255
0.1877012673610032 -0.0027773523246610 1.8929980640821746 255 255 255
0.2134112450217884 -0.0015065144450688 1.8905922637799684 255 255 255
-0.0631113403783481 0.0026777746915785 1.9186667898098131 255 255 255
-0.0411989764185259 0.0027323765207419 1.9168896549812837 255 255 255
-0.0300262426585456 0.0045059479790057 1.9148198477452132 255 255 255
0.0062770365309930 0.0045270072465373 1.9104955273658581 255 255 255
0.1834466527322673 0.0038373884224701 1.8906208566668283 255 255 255
-0.0601217058695229 0.0067855168925022 1.9174347807800198 255 255 255
-0.0507023661763151 0.0070031104708963 1.9167290890905111 255 255 255
0.1278012329525086 0.0058813210969229 1.8964871813316622 255 255 255
0.1365197319954122 0.0073553214333605 1.8959419931763823 255 255 255
-0.0491175327256177 0.0087244626929815 1.9156465164125516 255 255 255
0.1415567229312291 0.0089822413533618 1.8947284983783312 255 255 255
0.1442879060577740 0.0097424673760751 1.8932201399762953 255 255 255
0.0411555245485871 0.0109145029381237 1.9050393231400564 255 255 255
0.0805701991622190 0.0107626863274186 1.9014704342740920 255 255 255
0.1024352077751480 0.0103741999645974 1.8977727969773541 255 255 255
0.2427695291699159 0.0136961179021178 1.8931451963924921 255 255 255
0.0379952661723508 0.0126496178931403 1.9049428775254196 255 255 255
0.1727397093111377 0.0101248743687763 1.8898007719804273 255 255 255
-0.0093427065275073 0.0139857429003847 1.9094549350237009 255 255 255
0.1494321051274161 0.0124164368611099 1.8920021511488230 255 255 255
-0.0130547530992557 0.0141749761650716 1.9099075791513747 255 255 255
0.0876284240707781 0.0137300763710453 1.8991191923115780 255 255 255
0.0580986368644516 0.0141375886353101 1.9011223155079762 255 255 255
0.1416435644882190 0.0148429728397979 1.8924462013939696 255 255 255
-0.0191035089567121 0.0157706438169747 1.9105053060895192 255 255 255
0.0169604030304972 0.0181105486843437 1.9065867708771269 255 255 255
0.1293829058587574 0.0200668105231259 1.8914107320434876 255 255 255
0.2156383555621897 0.0194754746374510 1.8826103681598489 255 255 255
0.1290500748334207 0.0255546102025503 1.8901911697314340 255 255 255
0.2237992715611234 0.0244371370365766 1.8796869430244634 255 255 255
-0.0340672547172014 0.0270562913836230 1.9058401032350920 255 255 255
0.1698710940964059 0.0267979361020814 1.8856482457938917 255 255 255
-0.0296148795911204 0.0289920095135432 1.9068517529485609 255 255 255
-0.0002203299725085 0.0305834835487868 1.9029545258938221 255 255 255
0.0042674381281809 0.0303855606726180 1.9026109864686469 255 255 255
0.0972254323398007 0.0310714669741721 1.8921506936354566 255 255 255
0.1960916182037575 0.0298188575005982 1.8814153845047414 255 255 255
-0.0318952101120147 0.0342762266822041 1.9055575871240551 255 255 255
-0.0603490709884118 0.0360524523084502 1.9080112208277669 255 255 255
0.1503699200641604 0.0334263034653963 1.8862585146261956 255 255 255
-0.0373588934689657 0.0359808802667798 1.9053058178879496 255 255 255
-0.0048127556045729 0.0358574015388515 1.9017332549968731 255 255 255
0.0187354803240993 0.0358851794434003 1.8989372434839886 255 255 255
0.1199701918089700 0.0357938963086717 1.8881236831704538 255 255 255
-0.0398479923876427 0.0380146128043259 1.9055407941294344 255 255 255
0.1712595913141257 0.0372860060671858 1.8817237597181560 255 255 255
-0.0229359084807918 0.0404727989292148 1.9038290366918702 255 255 255
0.0769109735808904 0.0410827234233189 1.8905516134184843 255 255 255
0.1613329811998936 0.0406963409988661 1.8805084134109737 255 255 255
0.1021079045091149 0.0423608792544563 1.8876740914210934 255 255 255
0.0782103088263486 0.0441400036146524 1.8891196419882610 255 255 255
0.1941790473943290 0.1771035011060538 1.8333774348960032 255 255 255
-0.0476055945437503 0.0464596707448841 1.9030830871540125 255 255 255
-0.0356668570343910 0.0478709066418974 1.9012035724826188 255 255 255
-0.0434359603891877 0.0485244727297665 1.9020786101118858 255 255 255
-0.0234288322066689 0.0492111037236302 1.9000505358965309 255 255 255
0.0445832101799787 0.0488657483861070 1.8929239868154095 255 255 255
0.1034404373216113 0.0480925094172093 1.8860158821188913 255 255 255
-0.0578192289167228 0.0506858243236112 1.9032644285897771 255 255 255
-0.0143287021768600 0.0522034760203391 1.8992269857614854 255 255 255
0.0246008983518931 0.0504609796106110 1.8939389466037206 255 255 255
0.1979973778061854 0.0500290183409042 1.8744234181839161 255 255 255
-0.0341935251776145 0.0540356906566577 1.8993255516857674 255 255 255
0.1219514774684862 0.0522823717389107 1.8828085667012502 255 255 255
-0.0088189092143739 0.0541166377239924 1.8963865428602837 255 255 255
0.1187018866565621 0.0524140904608217 1.8824128233510571 255 255 255
0.1897423583529053 0.0516967402680408 1.8754811313585251 255 255 255
-0.0360205763692800 0.0559884299807822 1.8986952245187196 255 255 255
0.0190820628193844 0.0560680065815164 1.8922817781042465 255 255 255
0.0595089318706932 0.0570595383014219 1.8874305603073207 255 255 255
0.0176109971863272 0.0595165485333120 1.8915426911011011 255 255 255
0.0463059918353954 0.0614512114648882 1.8882078147902881 255 255 255
0.1952458967582240 0.0589592786720008 1.8713748928978227 255 255 255
0.0668242635826171 0.0633300319972339 1.8850910525945306 255 255 255
0.0505851895529896 0.0651673770896606 1.8862648852193478 255 255 255
0.1975670176325437 0.0629034558041646 1.8701385389071596 255 255 255
0.0682229855557672 0.0658241178107168 1.8842550561540392 255 255 255
0.0826262485541491 0.0669384408518772 1.8819299303273134 255 255 255
0.1561250767078670 0.0659086408256790 1.8747047216360038 255 255 255
0.2005571949016005 0.0659436704596281 1.8689764252957275 255 255 255
0.1605654002419357 0.0692648143839438 1.8757378484959091 255 255 255
-0.0526041469348586 0.0725752102635067 1.8951486747801738 255 255 255
0.0540643751567829 0.0711378841717831 1.8842361050106193 255 255 255
-0.0003603596510926 0.0728308717165360 1.8894960400816454 255 255 255
0.2031659118831941 0.0697847833013707 1.8675256419492534 255 255 255
-0.0457416011032858 0.0756478418808793 1.8934642089425195 255 255 255
0.0854147026682059 0.0750394145740181 1.8785911448421642 255 255 255
-0.0258044932091018 0.0778853717495167 1.8908963689823679 255 255 255
0.2337110412580437 0.0723163515782463 1.8634102936568695 255 255 255
-0.0200671913152629 0.0782088757043891 1.8883883404042940 255 255 255
0.0870296979885175 0.0782862735154781 1.8780808915811482 255 255 255
0.1442743782849432 0.0799901810708352 1.8708553263876802 255 255 255
0.0542379631931493 0.0846048702731190 1.8794307022150871 255 255 255
0.0654740771538309 0.0848956027257737 1.8780249987699271 255 255 255
0.1036321270262137 0.0869519331733084 1.8730337028374802 255 255 255
-0.0414564852929613 0.0905398613436179 1.8883076481480550 255 255 255
0.1326170410950462 0.0873510354862841 1.8698213541066231 255 255 255
0.0060518388951180 0.0923913439754962 1.8825639732272927 255 255 255
0.0081629372493708 0.0953494638727624 1.8815231360259292 255 255 255
0.1465916661613900 0.0915056123276727 1.8669971943883752 255 255 255
0.1459328256166610 0.0936993614684374 1.8683129449206541 255 255 255
0.2105682394685360 0.0911074749538177 1.8595301481456268 255 255 255
0.0162524265472053 0.0964810683637447 1.8797333549395567 255 255 255
-0.0410831361659629 0.1013877233510436 1.8841717286661963 255 255 255
0.1180070954298520 0.0958931485638344 1.8688004472907060 255 255 255
0.2107137711479048 0.0941238881915432 1.8584787650512560 255 255 255
0.0628712800128510 0.0989689843519725 1.8748255488268288 255 255 255
-0.0626187024046416 0.1044095647242784 1.8862383704131069 255 255 255
0.1604858270966751 0.0989193366135561 1.8629689696853475 255 255 255
-0.0154843183248234 0.1036371656754640 1.8812730051438900 255 255 255
0.2022123268462579 0.0990959384567613 1.8583081800504111 255 255 255
-0.0420124059254796 0.1071447745637144 1.8827649116152543 255 255 255
-0.0234176442879308 0.1086391384631646 1.8802070221998335 255 255 255
0.0477975560646442 0.1072928183468367 1.8729263805776251 255 255 255
0.0891159503271690 0.1072258419704477 1.8685342769032642 255 255 255
0.0050705355957121 0.1109507353157175 1.8768713605684879 255 255 255
0.0907771086095384 0.1092303141373918 1.8678766486079441 255 255 255
0.1910312092866593 0.1068889843732541 1.8569000937526163 255 255 255
-0.0212105294467126 0.1138365986492857 1.8790782276194440 255 255 255
0.1889872228728997 0.1089502342042312 1.8571878804405966 255 255 255
-0.0020404791013142 0.1134995133440242 1.8764134404764654 255 255 255
0.0900583772745200 0.1128120576671456 1.8671104263216733 255 255 255
0.2124525336108078 0.1092620963302302 1.8538975664629938 255 255 255
0.1724173937989408 0.1101469524450907 1.8576709185222979 255 255 255
0.0233262869105331 0.1165690130912651 1.8729029781831095 255 255 255
0.1550570082986145 0.1136929811457819 1.8592090277672568 255 255 255
0.2007372062794666 0.1139347481777833 1.8542413321158460 255 255 255
0.1848283254859791 0.1147586721090033 1.8554574914326931 255 255 255
0.2333716158121888 0.1143819608860248 1.8494131860681229 255 255 255
0.0230315947000492 0.1237625036283019 1.8703525460723140 255 255 255
0.1646522674012676 0.1208684270116294 1.8552202330038909 255 255 255
0.0980386623608780 0.1236466654971604 1.8621898860451687 255 255 255
-0.0274489947811718 0.1273811057264016 1.8745726991783318 255 255 255
0.0809207192071490 0.1262366317610160 1.8645617938601897 255 255 255
-0.0123009945124601 0.1293544705640270 1.8728344190332944 255 255 255
0.1892105290423363 0.1239487826945638 1.8525396462862442 255 255 255
0.0009218590646458 0.1291076973298435 1.8718589749212029 255 255 255
-0.0219730583685505 0.1309692124511841 1.8729222319073058 255 255 255
-0.0057914165249683 0.1301802162272938 1.8712030471962633 255 255 255
0.0958518366545400 0.1286410548076260 1.8613832020242871 255 255 255
0.1208945470541067 0.1285794802185225 1.8579516050209168 255 255 255
0.1120643271691266 0.1307537896473292 1.8584817755089809 255 255 255
0.0738305197106768 0.1319752183256480 1.8623980943642735 255 255 255
-0.0673502303342349 0.1371487189347618 1.8761653838875381 255 255 255
0.0218798663526455 0.1371885719663377 1.8668372499647241 255 255 255
0.2066099417030380 0.1311936616505283 1.8468097513681783 255 255 255
0.0968648297520422 0.1381465217315543 1.8577111693889226 255 255 255
0.1446992423638349 0.1374657840420479 1.8520310894908274 255 255 255
-0.0028332087209000 0.1436718433657163 1.8669331800185187 255 255 255
0.1110589961936608 0.1428605941171250 1.8588330902692225 255 255 255
0.1896133194907410 0.1383411924660685 1.8470461741212922 255 255 255
0.0972269617272339 0.1423173544136933 1.8568477088527331 255 255 255
0.0786506528775890 0.1433137007604701 1.8576067905259948 255 255 255
0.1795566624912279 0.1405211345673898 1.8475533920351488 255 255 255
0.2088362915790798 0.1396917516500462 1.8446591035906152 255 255 255
-0.0175283614078910 0.1473641132059247 1.8673966912938500 255 255 255
0.1461520183603686 0.1433278793369412 1.8498843151775164 255 255 255
0.1869320373951684 0.1433539672459769 1.8454111461407248 255 255 255
0.1908131089018834 0.1431138932290885 1.8449786214171979 255 255 255
0.0851035824108948 0.1484809633253299 1.8562125770249338 255 255 255
0.0641335927556685 0.1502078221019687 1.8571368980472336 255 255 255
0.2094109331475353 0.1488839811774390 1.8422192183049231 255 255 255
-0.0004686513225024 0.1557734325663915 1.8630678296961252 255 255 255
0.0408682467825063 0.1554879557779054 1.8586880207429815 255 255 255
