ply
format ascii 1.0
element vertex 682
property double x
property double y
property double z
property uchar red
property uchar green
property uchar blue
end_header
-0.3677060504400191 -0.6349014195711824 1.2494489998087666 255 255 255
0.8588906468897903 -0.1237949190452525 0.4825401973886230 255 255 255
-0.2200257111665902 -0.5810508471226843 1.1933642208253641 255 255 255
0.3495277539766093 -0.4577655777531326 0.9177743341360021 255 255 255
0.9038991720353415 -0.1708841717748655 0.5159825542448493 255 255 255
0.3998452450325658 -0.4632911837005054 0.9128631435297336 255 255 255
-0.6271632142158516 -0.6126295991191242 1.3563459668550735 255 255 255
0.9759568091704267 -0.0853610963629805 0.4314313142521993 255 255 255
-0.6076662870819520 -0.6049371157350940 1.3535265763532927 255 255 255
0.9635650917061902 -0.0998900697206135 0.4500095884383581 255 255 255
1.0145101394520566 -0.0778194940505443 0.4246670312677807 255 255 255
-1.5426910151485700 -0.6999001257782709 1.7679767494158085 255 255 255
-1.7825561274705777 -0.5815933013179944 1.8219494375729823 255 255 255
-0.4722618100638982 -0.2977764217123706 1.1749987178638719 255 255 255
-1.0333248947354714 -0.2294053214706575 1.3414656792499029 255 255 255
-0.3314997715826729 -0.2010936835242276 1.0899314571710566 255 255 255
-0.6410891708610724 -0.1069255172000840 1.1378473342386730 255 255 255
-0.2863314966643813 -0.0935515989580100 1.0129419046642560 255 255 255
-0.3656278554532619 -0.0990281162451296 1.0479820478620070 255 255 255
-0.6949212980750854 -0.0967504551569363 1.1505527288663870 255 255 255
-0.6508985117049289 -0.0820825005390482 1.1267843560097202 255 255 255
1.0284107413777193 0.1415978591497549 0.3605692748510316 255 255 255
-1.0273340890778524 -0.0486505884101334 1.2253475932043614 255 255 255
-0.3556768299305308 -0.0191125483671568 0.9878758553151394 255 255 255
1.2021759989709153 0.1327567438055439 0.3271728381508341 255 255 255
-0.5117012109420136 0.0720840987317928 0.9472939764986901 255 255 255
0.6536700904315955 0.1630873238787220 0.5122780152514195 255 255 255
0.6614916197783884 0.1535925217301397 0.5264228294655364 255 255 255
0.3866238474697606 -0.6320301800833015 0.9037428173224100 255 255 255
0.8413341340643825 -0.4207509795574680 0.6828176577501921 255 255 255
-0.1820189078808685 -0.1859300018092114 0.9973744887456260 255 255 255
-1.1300939348366317 0.0835736173473443 1.1409429211486248 255 255 255
-0.3793789605200083 -0.7007457488583455 1.2135709278608751 255 255 255
0.0640602895719837 -0.6658444591116108 1.0548052493050548 255 255 255
-0.0191684126020277 -0.6003312534871839 1.0567638210525843 255 255 255
-0.3549917319815865 -0.6550199546654767 1.2124698933099261 255 255 255
0.5559268478881201 -0.6075110522578768 0.9003694832455515 255 255 255
1.0369288631479208 -0.3448145741784927 0.5895560885070736 255 255 255
0.2779697984636709 -0.4696525910731921 0.9410099841639212 255 255 255
0.3460146995775801 -0.4530651362910341 0.9146688933055120 255 255 255
0.2613869259939392 -0.5132490795892828 0.9984512539966914 255 255 255
-0.2773931163658666 -0.5324004052317175 1.1992088092256159 255 255 255
0.9793318944243197 -0.0920880340371752 0.4419672137069135 255 255 255
-1.5859161971204845 -0.6795981922123993 1.7839777033151236 255 255 255
-1.6197537948182728 -0.6775170086524298 1.8105200650699231 255 255 255
-0.0981881364883836 -0.3685634289591135 1.0682277969529936 255 255 255
0.6484012550539475 -0.1067394127581309 0.6095076762904625 255 255 255
-0.1153213039907666 -0.3184416863788648 1.0417439100516965 255 255 255
-1.7589523758723828 -0.6481872711734837 1.8732279717469282 255 255 255
0.4173203059437576 -0.0819891262802699 0.7011664884378614 255 255 255
-0.1269809964597499 -0.2018399487478177 0.9966886977246645 255 255 255
-0.5610021271276118 -0.2292740428674627 1.1869838273962525 255 255 255
-0.9431229029747499 -0.1661534426760412 1.2675933998834452 255 255 255
-0.3259124368560240 -0.1004423200519717 1.0277054850863898 255 255 255
-0.6414474287702436 -0.1130910630881878 1.1424323794758848 255 255 255
-0.2273312182214124 -0.0659253281571424 0.9611989125654410 255 255 255
-0.2710532328046344 -0.0736663180841113 0.9943621690188342 255 255 255
-0.6934038587655591 -0.0996410279186506 1.1540810316773502 255 255 255
0.0984377970028945 -0.0323889215967199 0.8315614014791706 255 255 255
-0.6542993314710692 -0.0793266551645360 1.1260670121691305 255 255 255
0.0922414068469664 0.0060998010593352 0.8124630325002435 255 255 255
-0.3578902950603471 -0.0093564937386574 0.9807997657320220 255 255 255
0.9601888468300039 0.1728162190395857 0.3579400320556205 255 255 255
-0.5247628618707090 0.0253220261723826 1.0039814657455040 255 255 255
0.1643273765975302 0.0442238364994587 0.7665164108527431 255 255 255
-0.3195864803010524 0.0881596351436658 0.8821975512777445 255 255 255
-0.4510407087252202 0.1233305735906587 0.8976537953656596 255 255 255
-0.5107845738844006 -0.8036385143002356 1.2433569776008966 255 255 255
-0.4321196652180710 -0.6732295269121700 1.2368654481075936 255 255 255
-1.1003012294111159 -1.2166625058006844 1.8699923738793416 255 255 255
-0.9908475568255164 -1.0792379140106556 1.7426807970018787 255 255 255
0.6828308983667171 -0.4582356419661835 0.7656888874651315 255 255 255
0.9819822984658657 -0.3683287819763521 0.6052753514211524 255 255 255
0.3528221609635764 -0.4569474125523527 0.9153129084626208 255 255 255
-0.3807514481860870 -0.6115803707028107 1.2752151117370545 255 255 255
0.9424623186000858 -0.1285292886291316 0.4743365766160554 255 255 255
-1.7508525152650236 -0.6474511178754483 1.8709866290828643 255 255 255
0.7678670282217723 -0.0833041734041231 0.5689995750072807 255 255 255
-0.2287188150502004 -0.2440760098059975 1.0486925289158338 255 255 255
-1.0282475350581590 -0.2427881879857843 1.3451704073750319 255 255 255
-0.1590694090797982 -0.1448748745350112 0.9741624332694885 255 255 255
1.2899310641135386 0.0014898269758268 0.3679144407136956 255 255 255
-1.0802791756034402 -0.2203864051115261 1.3543761368593721 255 255 255
0.1492641992696413 -0.0264233254562036 0.8029824682011224 255 255 255
-0.6177466016924678 -0.0645570507157771 1.1037754267276574 255 255 255
0.3537634606584561 -0.7014415932724205 0.9696453045285409 255 255 255
-0.0485410731854401 -0.7392638300433845 1.1224181689247885 255 255 255
-0.3133440815435549 -0.6395918317233082 1.2063171069491343 255 255 255
0.6045414459659142 -0.1051852954058674 0.6210421835360052 255 255 255
-0.2886626230856848 -0.2967678859677019 1.1061830739589773 255 255 255
-0.1883110956722143 -0.7556032552483600 1.1726430614083512 255 255 255
-0.0781088117996883 -0.6830322716166712 1.0987873162040716 255 255 255
-0.4278085613939169 -0.6938234617209105 1.2175216736151242 255 255 255
-0.3514287398565958 -0.6149049127097470 1.2519947687213868 255 255 255
-0.8868554930555403 -0.6515172039722987 1.4823200967143082 255 255 255
-0.1770441517600378 -0.4263139911227114 1.1082516445007116 255 255 255
0.9766474149348312 -0.1056906256691583 0.4668086149751458 255 255 255
-1.7465941797640880 -0.6500054798983967 1.8736177455353413 255 255 255
1.0754711242405008 -0.0545877905503502 0.4365260964258706 255 255 255
0.4497455769735978 -0.0793773653267920 0.6698060902720684 255 255 255
-0.3447067988350874 -0.2561990219673476 1.1117721349937710 255 255 255
-0.0823282858397434 -0.1952208714580763 0.9822057459536992 255 255 255
0.2058485278144708 -0.0935675800505962 0.8069793356035362 255 255 255
0.2225454118611145 -0.0503741029233291 0.7784994153875324 255 255 255
0.0682979532060930 -1.2109851472391888 1.4107708743157055 255 255 255
-0.3340876307909535 -0.6259543770550913 1.2173080364776663 255 255 255
0.2347505879552507 -0.5102928704611784 1.0018082308323848 255 255 255
-0.4321846173358210 -0.2780638436646186 1.1541974405968976 255 255 255
0.1305265937347384 -0.6628583585844066 1.0288269055627417 255 255 255
0.8282272498174379 -0.4321573438304256 0.6974775951135488 255 255 255
0.7451144923696083 -0.4769599191819065 0.7539611716087418 255 255 255
0.6293345572108962 -0.5169932493378653 0.8241865595863160 255 255 255
-0.3235111197175797 -0.6267397082948207 1.2158407576953039 255 255 255
0.8255779894485045 -0.2796269653171777 0.6139412759248550 255 255 255
-0.8033632609200936 -0.6129946756866644 1.4305000598178594 255 255 255
0.1338180012226715 -0.3285138449087412 0.9383681540350892 255 255 255
0.3185860324650980 -0.6386967960262346 0.9571870408080745 255 255 255
0.5394466310630914 -0.5935359653553327 0.8857464837123050 255 255 255
1.1145276901979972 -0.3980372049132495 0.6101402915154477 255 255 255
-1.2286348197059489 -1.2699463725137576 2.0187265147644560 255 255 255
0.9901651467793471 -0.0871764461885745 0.4401830825841841 255 255 255
-0.7078370421631988 -0.6288215536953317 1.3766048288035933 255 255 255
1.0271573807818797 -0.0357502000764285 0.3941130650631983 255 255 255
-0.3183969044469634 -0.5941706207840767 1.2448645149283237 255 255 255
1.0441240711971722 -0.0387905780598334 0.3947444374118430 255 255 255
1.2433366730089546 -0.2708996255940619 0.5403373066070127 255 255 255
1.0080263269280190 -0.0418129027431817 0.4197867932647066 255 255 255
-1.5492592396024656 -0.7007423197292537 1.7740348771706547 255 255 255
0.4248826329929827 -0.0957370801835893 0.7096948032106845 255 255 255
1.2740601508243685 0.0980571129476822 0.3092815029234046 255 255 255
-0.4457581616338576 -0.3016807140408364 1.1688779103205800 255 255 255
-0.3467750888889753 -0.2591582061458269 1.1044910957193537 255 255 255
0.3955894598593632 -0.0586463191274831 0.7115189244998703 255 255 255
-0.5318551789357322 -0.2819344984492993 1.1960648299284777 255 255 255
1.0234640560932640 0.1544467889775980 0.3554260329647807 255 255 255
-0.4050072836765439 -0.2130279188890718 1.1130288077086767 255 255 255
-0.9674212543593299 -0.2426885257659865 1.3202183551349140 255 255 255
-0.6208095888666829 -0.2358766199683182 1.2152217579111171 255 255 255
-0.6728204839529386 -0.2503298465750552 1.2484953486879644 255 255 255
-0.5337828774430200 -0.1815808287589333 1.1459757854696311 255 255 255
-1.4246555487734938 -0.4377154168046076 1.6538325861019700 255 255 255
-0.9763718432660227 -0.1569739847417466 1.2553431838933093 255 255 255
-1.3561118304029165 -0.3861648214678581 1.5898481349272942 255 255 255
0.7030768556079927 0.1515004113200824 0.5003107912736064 255 255 255
-0.2900705457562722 -0.0414942670799423 0.9871272195756493 255 255 255
-0.4085039932733587 -0.0132254552386346 1.0101373233187179 255 255 255
-0.9011131048157122 0.0218830223177640 1.1023499658680707 255 255 255
-0.3069308077659605 0.0972314903576330 0.8693389328991894 255 255 255
0.4897624886821816 0.2041729400959014 0.5409866040671396 255 255 255
-0.2665916042429295 0.2216962184658389 0.7710839611813873 255 255 255
1.0285408989706433 0.3492688100751753 0.2871122011953657 255 255 255
0.6660542037389234 0.3137135287091470 0.4254527981734242 255 255 255
0.3270258164236424 0.2302854494588580 0.6087297412827173 255 255 255
-0.1385236429856125 -0.6345992870284398 1.0835795285098850 255 255 255
-0.1038224208479956 -0.6113796037496009 1.0861709122563443 255 255 255
0.5483224854036735 -0.5395462133536384 0.8594310962089757 255 255 255
-1.3217935286344424 -0.7129717166141063 1.5843825402424585 255 255 255
1.0419142347184120 -0.0651190582476282 0.4097807380343017 255 255 255
0.5709558647029169 -0.0834801873164999 0.6403003639507006 255 255 255
-1.5067632402891533 -0.6749750493222422 1.7662699392911847 255 255 255
0.4197982632549957 -0.0818146712389414 0.7003396594978017 255 255 255
-0.1068661401203030 -0.1820303373179968 0.9795369335802846 255 255 255
-0.1251256950733080 -0.1435605044190638 0.9656508087969797 255 255 255
0.1635908611796282 -0.0705148050862050 0.8167365309204406 255 255 255
0.2263933645668572 -0.0322254323171860 0.7648331816870546 255 255 255
1.2717262448652491 0.1730865342673695 0.2823915932055137 255 255 255
-1.4178752686210174 -0.4427878622823727 1.6470658575897090 255 255 255
-0.5844128894246321 -0.1839641490992037 1.1610804321569859 255 255 255
0.3316965096122999 0.0346748566745916 0.6984083553844442 255 255 255
1.1481406509660417 0.3059496239614319 0.2108102215988179 255 255 255
-1.1226454782443303 -0.2118956070079463 1.3607044359275307 255 255 255
-0.2659808740448995 -0.0819798010161037 1.0006915998677783 255 255 255
0.6897441509671411 0.2167014882802167 0.4705346418317413 255 255 255
1.1229710539847702 0.3708928669743905 0.1900955530264952 255 255 255
0.4524045044813079 0.2058942860833106 0.5489663318582458 255 255 255
-0.0461976896033938 0.1606769600227196 0.7466787915484350 255 255 255
-0.1933915805259865 0.1758880083628256 0.7699782073173225 255 255 255
0.7436505528507213 0.2582953873417200 0.4346889853267055 255 255 255
-0.2987199407585148 0.1615672654405187 0.8227454733936335 255 255 255
0.2252843625215988 0.1751998659896294 0.6806073642352182 255 255 255
0.2247677867483162 0.1628264821642027 0.6976648234589700 255 255 255
0.6218365810204434 0.2954059114994037 0.4453984405802416 255 255 255
-0.1960408645097402 -0.7479635816573023 1.1693373899032622 255 255 255
-0.9488141632491001 -0.7030188403040398 1.4418759992872197 255 255 255
0.9806069775759880 -0.2569274229367386 0.5475464624839157 255 255 255
0.9610733475541799 -0.1077121870398940 0.4477167187161779 255 255 255
0.9670107593236352 -0.1090654947991965 0.4572827096886734 255 255 255
1.1767581180543658 -0.2883973000480680 0.5547816871761029 255 255 255
1.1999232982901660 -0.2869571599934488 0.5503402688781129 255 255 255
1.2930766238151108 0.1916419239093630 0.2491266606584386 255 255 255
-0.5435337826474236 -0.2115696531110371 1.1692834650995323 255 255 255
-1.4217381868374979 -0.4425818243473429 1.6575811047209186 255 255 255
-0.1373090534057582 -0.6676664119419513 1.0999354401581343 255 255 255
-0.0893712599072387 -0.6042663817124208 1.0799022457075296 255 255 255
0.5147243709160705 -0.5966956918056212 0.8948821207301201 255 255 255
-0.6576873082943067 -0.8597102386827942 1.4468341133772640 255 255 255
0.9881415419221824 -0.0814151882923788 0.4214316882236249 255 255 255
0.9915066770845016 -0.1017299131185787 0.4487003296088599 255 255 255
0.4112510178859523 -0.4435914017915294 0.8963169615177229 255 255 255
-0.2835626548613606 -0.5242170594847302 1.1970929220435416 255 255 255
-0.1788012639373600 -0.4451165351704418 1.1264069053766814 255 255 255
1.1838202991813525 0.0016275898316085 0.4029123273945716 255 255 255
1.2339957974701417 0.0139705980572735 0.3908147352089602 255 255 255
-0.2338534528511319 -0.2484283470261355 1.0535479066042974 255 255 255
0.3949804155930252 -0.0572694190177998 0.7106038483420907 255 255 255
1.3109008754854625 0.1214036053047058 0.3033124467876007 255 255 255
0.1606933003173481 -0.0719947476608951 0.8177276397192621 255 255 255
0.1842916938583663 -0.0608173076406473 0.8015319360992894 255 255 255
-0.2993151660247451 -0.0686725993835058 0.9931005000159514 255 255 255
-0.2681186736211902 0.0283100635462183 0.9169182483744436 255 255 255
-0.3697184502809900 -0.0443139581043521 1.0192594418515863 255 255 255
0.7138671976990665 0.1999962439235929 0.4784451565176293 255 255 255
-0.6899075689593737 -0.0094520446570279 1.0842114163542114 255 255 255
-0.6698267463792913 0.0129484463493412 1.0661006421418850 255 255 255
0.2920060935058686 0.1278513390556419 0.6853583057141437 255 255 255
-0.3143477243077175 0.1265653574876806 0.8504337405602769 255 255 255
0.4050744721252961 0.2274871027542353 0.5516456570934798 255 255 255
0.6148426865224890 0.2380580010122388 0.4832476155433212 255 255 255
-0.5104132946413422 -0.8040102392465549 1.2429819274446228 255 255 255
0.1135187466319607 -0.6711499651364434 1.0463271555403573 255 255 255
-0.8254843835700232 -0.9139229231366706 1.5615723123285861 255 255 255
0.8861502073522374 -0.1397628118899874 0.4860303407002800 255 255 255
1.0254999319919165 -0.0841695868583852 0.4286178016742230 255 255 255
1.0695032065501042 -0.0852051270884786 0.4276423660290023 255 255 255
1.2490683948655565 0.0794004795938386 0.3303968944848101 255 255 255
-0.0017175571065682 -0.2158523053830912 0.9650740375802425 255 255 255
0.3704480282019507 -0.0474772967145700 0.7253041568632188 255 255 255
-0.3783310325348950 -0.6237036447860831 1.2379270227855379 255 255 255
0.9555372722686641 -0.1542968788963393 0.4824661987320473 255 255 255
1.0763121902759298 -0.0254702174076620 0.4056660586147496 255 255 255
1.1849711918391463 0.0059258121866437 0.3794258704116276 255 255 255
1.1423733009103465 0.0103780939645306 0.4038313883232130 255 255 255
-0.9858613638372375 -0.2473674665050964 1.3297568860388225 255 255 255
-0.2281680754373369 -0.0601974104265914 0.9574968919155786 255 255 255
-0.2915782123297568 -0.1012092018401631 1.0233985541943404 255 255 255
-0.5432754428587367 -0.8129302990582126 1.2593756548693982 255 255 255
-0.1172779024469115 -0.7106252203906855 1.1155056652358670 255 255 255
0.4279249650381445 -0.3688923337830587 0.7683133300500646 255 255 255
1.0616912576853066 -0.1165320943700392 0.4630834508032358 255 255 255
1.0558067716360569 -0.0933839270484214 0.4740347604072053 255 255 255
0.7614668645620810 -0.0852215856814738 0.5703489807217146 255 255 255
0.4206716848848799 -0.0819394731778758 0.7004652919494028 255 255 255
0.8544600208689310 0.1604221293862560 0.3815695944877628 255 255 255
0.3561197600627530 -0.0474984842826407 0.7284832471281457 255 255 255
1.0597023588722791 0.1568766622450806 0.3487601744725124 255 255 255
0.1748875809839276 -0.0021002543129427 0.7790219985607649 255 255 255
-0.6203272656260950 -0.9757578152185005 1.5009054315299046 255 255 255
0.8833579238968259 -0.4021710880652645 0.6640632196664136 255 255 255
0.8132072578001583 -0.2711137803304169 0.6086833255423567 255 255 255
0.9092651855312219 -0.1279924897494187 0.4856629526220502 255 255 255
0.9786989331517972 -0.0996314974169721 0.4549032095403991 255 255 255
0.1403511401819681 -0.0632358514581544 0.7920360535971689 255 255 255
1.0311406791737232 -0.2099847045797816 0.5281291998343622 255 255 255
0.8171223134839778 -0.4315274371757435 0.7011605018982419 255 255 255
0.9920573577528700 -0.3775178457038031 0.6150941363822575 255 255 255
-0.9807477739070620 -0.6531651532698248 1.5238291353086026 255 255 255
-0.0063431213469198 -0.5328590513803606 1.0815777583636637 255 255 255
-0.5654621563783735 -0.8163057616506428 1.2696676020693261 255 255 255
-0.4157392103588222 -0.8629709317691550 1.3383843265735891 255 255 255
-0.4424154791394930 -0.6770540585622040 1.2147569850442945 255 255 255
0.4434987965245654 -0.4885544857085051 0.8537064500878913 255 255 255
0.5849027511900999 -0.3321826307927616 0.7068841169706932 255 255 255
-0.9767219735936372 -1.2410473490934919 1.8598758791530159 255 255 255
0.8647239714541932 -0.2039913312856001 0.5435582785356985 255 255 255
0.9274288485190247 -0.1404222179429025 0.4876830759925506 255 255 255
0.1381882586601506 -0.3171728135983756 0.9340943186623036 255 255 255
1.0137069428786347 -0.0075171946860343 0.4572360514353750 255 255 255
1.2082765324900606 0.2204984156397813 0.2141834768564799 255 255 255
-1.4414143113741495 -0.6697951942701081 1.7264462903670506 255 255 255
-0.1257832590011390 -0.2192136905004531 1.0037033670316511 255 255 255
1.1805208866558701 0.4110451832438144 0.1439126720156594 255 255 255
-0.3670420697352323 -0.0220139693042807 0.9982261789001337 255 255 255
-0.9606684927876357 -0.1486538662483028 1.2658166352491325 255 255 255
0.3832632735592725 0.2692049746991971 0.5519437814594514 255 255 255
-0.6564744864544139 -0.0159261276806166 1.0753543765442828 255 255 255
-0.5206347277862697 0.0179933925341480 1.0138217931379554 255 255 255
0.6570652170974540 0.4653097179748436 0.3082571957801221 255 255 255
0.2533218487762952 0.2385244020068118 0.6399076663107648 255 255 255
0.2311019586742812 0.2455611063254302 0.6418530549464827 255 255 255
-0.8438307589212792 0.0732503542633651 1.0502430825770714 255 255 255
0.3367836150193568 0.2873470630756412 0.5791345344237695 255 255 255
-0.6048545487254238 -0.9637358414690667 1.4954150712733245 255 255 255
0.5667315375736592 -0.5023789854752998 0.8288721750020933 255 255 255
0.6514373265022613 -0.4777327776284181 0.7857982024854735 255 255 255
0.9791774865194185 -0.1565938101417501 0.4922460592097133 255 255 255
0.9290315456730944 -0.1670828317092683 0.5184720264953606 255 255 255
-0.0307001930822075 -0.5274730453095131 1.1188085501758529 255 255 255
-1.5008405591859688 -0.7227943356761983 1.7491646964637297 255 255 255
1.3164269954152346 0.1198413819487718 0.3032868895381027 255 255 255
-1.5935565299549506 -0.6985930424793843 1.8126695116249856 255 255 255
1.1770118021607914 0.3701146237181021 0.1693320268280019 255 255 255
0.7151419531477607 0.1885773448217063 0.4847396816089260 255 255 255
-0.6517721302429536 -0.2568687401338643 1.2422061881950945 255 255 255
-0.3317164876855747 -0.0990993749781817 1.0272037612231890 255 255 255
-0.6381376444896238 -0.1752371609138281 1.1843201997314527 255 255 255
0.9932476163931270 0.4922560680902741 0.1531619429339948 255 255 255
-0.5001552348620533 -0.1202413311297921 1.1164148369731479 255 255 255
-0.2977365174912805 -0.0170289718859635 0.9713772619601784 255 255 255
-0.2886659589892879 0.0786201961801956 0.8696801227642168 255 255 255
0.7252250803839573 0.3476554877401021 0.3832988719727322 255 255 255
0.6364027275300437 0.3010273514521972 0.4532119094366514 255 255 255
0.6686578230151667 0.4392489840111269 0.3239206425188481 255 255 255
0.9378308143307521 0.5762221027841994 0.1255304791664784 255 255 255
0.6581459691895049 0.4649930262272162 0.3085425420727805 255 255 255
-0.5120443153412917 0.1129366065703685 0.9317921691734647 255 255 255
-0.1998634476213201 0.2374365261374374 0.7382198200644234 255 255 255
0.3645113944378311 0.3162387294826896 0.5468885835179123 255 255 255
0.6380309394915926 0.5153853314523982 0.2796962815200992 255 255 255
0.3069033952839799 0.3311704334011374 0.5492629325518656 255 255 255
0.5693566035995854 -0.5737560944779858 0.8837000484235293 255 255 255
0.9790014786703765 -0.1158978384354681 0.4454867969182423 255 255 255
0.9074213855490179 -0.1342154068387957 0.4885650442205387 255 255 255
1.1255429975290099 -0.0739328473559686 0.4634326555684183 255 255 255
1.2181763292351206 0.3867410438247276 0.1490007542627652 255 255 255
-0.4746752899889918 0.1406650922851171 0.9033410186483417 255 255 255
-0.5359433122433046 -0.7879903521299099 1.2416974036822310 255 255 255
1.0619744931194433 -0.2337979326030135 0.4398263311529877 255 255 255
1.0943182741352011 -0.1683856194153810 0.3971379050460317 255 255 255
1.1226266117761767 -0.1616970190304272 0.3870029243352722 255 255 255
0.1257896779554812 -0.6412142328098298 1.0438211473111600 255 255 255
1.0841689438972182 -0.1113894506821205 0.3891632288635396 255 255 255
0.9172469159069445 -0.1596123817982713 0.5124957147383267 255 255 255
-0.3344145979543072 -0.5982506218256844 1.2403879480130087 255 255 255
-0.1342625307548104 -0.4501904343821366 1.1171042491149592 255 255 255
1.1054136025129040 0.2087655268037824 0.3105993854179161 255 255 255
1.1728422417364186 0.3035663375600279 0.2080142319485816 255 255 255
-0.3202412063502715 -0.2671573803873217 1.1006093997519777 255 255 255
0.6924011785949880 0.0845983058001738 0.5380069380917307 255 255 255
1.1017947474809091 0.3825873031937173 0.1841667595635137 255 255 255
0.6183058335701634 0.2075097780222741 0.4964999786148585 255 255 255
-0.2864611614375576 -0.0946908580873185 1.0151691411250079 255 255 255
0.7427750620933473 0.2558804208685295 0.4354014778048931 255 255 255
0.5649959500727686 0.2411383004982368 0.4948351872809171 255 255 255
-0.5324483812660068 -0.1342553409523815 1.1205628091690887 255 255 255
0.7399278992047869 0.2879026462380794 0.4169945779416260 255 255 255
-0.9068039061800661 -0.1677825990875235 1.2482163501123864 255 255 255
-0.2808256446086475 0.0751643155299426 0.8722049511263696 255 255 255
-0.2545304215474076 0.1195566836832356 0.8228297450381277 255 255 255
-0.2957090077598838 -0.0166746572969139 0.9718630621355171 255 255 255
0.2409865512841940 0.1706500261640693 0.6814285239294238 255 255 255
0.6255480807041884 0.3195654945546278 0.4525589142133462 255 255 255
0.3258758874816579 0.2337179303582686 0.6078684471056786 255 255 255
-0.6606459464032071 -0.0091438439508416 1.0729912069071865 255 255 255
0.6667125684348605 0.4413099537921292 0.3232855128060184 255 255 255
-0.2957007035764647 0.1618832716505203 0.8231018211929992 255 255 255
0.9106611897210257 0.5714484113986278 0.1376283790427451 255 255 255
0.2221839877778180 0.2075790349840148 0.6765299665969193 255 255 255
0.6547551917384737 0.4655389595260448 0.3090567736792718 255 255 255
-0.3825570135828320 0.1762243126027760 0.8362539096214481 255 255 255
-0.4907362673298863 -0.8006735949150183 1.2367570326148964 255 255 255
-0.4452244015359383 -0.8365369171856400 1.3369858672776331 255 255 255
1.1010008317243418 -0.2039357173644558 0.4202536152417782 255 255 255
1.0073537404576314 -0.3556049211573011 0.6006063683269236 255 255 255
1.0025187155330286 -0.0603777008823485 0.4184244540701343 255 255 255
-0.3761901626628692 -0.6258133693530219 1.2864004824411825 255 255 255
0.6856684906488582 0.0865947367871154 0.5384631441695236 255 255 255
1.1473293633835340 0.3652514132617615 0.1780637055248917 255 255 255
0.1304641437453253 -0.0549135256600897 0.8226576379733914 255 255 255
1.1105841425811604 0.3637621120891730 0.1965929881493906 255 255 255
1.0482663798416354 0.4315864900805177 0.2139746033195351 255 255 255
-0.2882407349811231 0.0836848734044295 0.8696202293462072 255 255 255
0.6688457115218895 0.3361615725042073 0.4061316993222350 255 255 255
1.0009782554384401 0.5276338971354662 0.1337168600767384 255 255 255
0.6373380502491592 0.3078536726341188 0.4420169794184954 255 255 255
0.5937259940288548 0.3013783160800476 0.4608335940105368 255 255 255
-0.1901214296525398 0.1674007943681142 0.7742447211498398 255 255 255
-0.6763241120006676 -1.0289512515437309 1.6055929632995856 255 255 255
1.0286792102648867 -0.2426021333590036 0.5226662032031255 255 255 255
1.2287530173826369 0.0799193870706112 0.3247910030012164 255 255 255
-0.1128174838492646 -0.3545583486937556 1.0597969336301420 255 255 255
0.1496447996979411 -0.0704715890763801 0.8178022676967074 255 255 255
0.6613628613893354 0.0994560704501333 0.5447774025965471 255 255 255
1.0165690060504033 0.4109703070636033 0.2359049690963406 255 255 255
0.8765348254210870 -0.4011902100584983 0.6610185075178245 255 255 255
-0.9284473622890363 -1.2222544460089964 1.8325346942271352 255 255 255
1.0964907089347466 -0.0254719349576762 0.3829539010356964 255 255 255
1.1050928163687104 -0.0332102360939593 0.4046839152527930 255 255 255
1.2608258982541258 -0.0101548320302101 0.3760938970790928 255 255 255
1.2718335884209182 0.1372357170344785 0.2879824263591502 255 255 255
1.0696473561272057 0.1852291999208040 0.3251365458092348 255 255 255
-0.5721450248570576 -0.1931457215017431 1.1624625157570598 255 255 255
0.7861416045063976 -0.4744749711016212 0.7330856379709303 255 255 255
0.9776655878389136 -0.3163983710090292 0.5778600691224867 255 255 255
0.3879875292915180 -0.0504149550541086 0.7358917199972419 255 255 255
-0.6490404673506884 -1.0058009431168022 1.5501427802334309 255 255 255
1.0656897783210866 -0.2885783917949594 0.5418619374831444 255 255 255
-0.3008867192352511 -0.6718857796133193 1.1555504391081328 255 255 255
0.9002593626684057 -0.1353864935771760 0.5273230550211059 255 255 255
0.9463279053303886 -0.0649303209932732 0.4913294298604844 255 255 255
-0.5523974592983034 -0.8096483792358775 1.2817581727883898 255 255 255
-0.2168559459247064 -0.7217235413916114 1.1578422336730441 255 255 255
-0.0975440200234914 -0.6963801188892944 1.1115831871123945 255 255 255
-0.2528464388418712 -0.6496986041569173 1.1371819953494562 255 255 255
-0.1102018773057907 -0.6108057112370275 1.0883521674742518 255 255 255
-0.0343191371441662 -0.5965451725553024 1.0599392820329747 255 255 255
-0.6526595163050519 -1.0136870273844316 1.5516979621501354 255 255 255
0.5609924820359566 -0.4917036634774874 0.8205445444127299 255 255 255
-0.6955388146391783 -0.6617755564930121 1.3135522872214409 255 255 255
0.7408912321366099 -0.3455811783475682 0.6733634071953212 255 255 255
-0.6479907087695800 -1.0371901277413578 1.5928741758482872 255 255 255
-0.6613945072430383 -1.0411856624445477 1.6048637199909024 255 255 255
-1.1196671783002543 -0.6978333358164548 1.4886632501180941 255 255 255
1.0272714670074912 -0.0694242335818265 0.4278888672315571 255 255 255
1.2295151418541934 0.0838816488155327 0.3211380417764698 255 255 255
1.1032882540312272 0.0171803794095258 0.4162949662554327 255 255 255
1.1790827911893018 0.3983688689006808 0.1535558258922123 255 255 255
1.0117586672192829 0.4432639433059489 0.1562572100489774 255 255 255
0.9869993430673389 0.4705024044168238 0.1511802796069475 255 255 255
-0.3342410960342210 -0.2707831092580353 1.1049166129116337 255 255 255
0.4603106857068759 0.2199489026921417 0.5393658592558852 255 255 255
-0.0866324977824609 0.0016456309598132 0.8805648188042356 255 255 255
-0.5447670661121746 -0.1739804173139339 1.1425530964185961 255 255 255
-0.7679122253129687 -0.2826435343298863 1.2879285546267947 255 255 255
-0.2615303302295384 0.0140841445189563 0.9183417958867364 255 255 255
0.3326873297674773 0.3108876220542784 0.5296308530700653 255 255 255
-0.9173649652169571 -0.2532609198822566 1.3115871775915604 255 255 255
-0.6038209865886168 -0.1308873667656636 1.1427327830198371 255 255 255
0.3570811187976908 0.2760437743082815 0.5788985393744945 255 255 255
0.8048006966839978 0.6589833433290622 0.1280877796199960 255 255 255
-0.9473174496266346 -0.1990439311005989 1.2955043785252496 255 255 255
-1.0069191428235369 -0.1243495841968318 1.2612969992057901 255 255 255
0.1629055069543455 0.3978305121821439 0.5424256398989522 255 255 255
-0.9900358348150284 -0.1218011335021316 1.2572317881805226 255 255 255
-0.2157654699351212 -0.9072522900089552 1.2838008900103546 255 255 255
-0.6342293010945959 -0.8278021201638328 1.3646071252576508 255 255 255
-0.4248423135988659 -0.6830681793701388 1.2117886381256220 255 255 255
-0.3877447913001220 -0.6747045643917318 1.2110390911910827 255 255 255
-0.6569825282433186 -1.0257017832653030 1.5580378623174065 255 255 255
0.7919256373881680 -0.4512982485201000 0.7179720829074565 255 255 255
-0.3697269623095707 -0.6607395351428380 1.2134516688979460 255 255 255
-0.0075773426241899 -0.6788054172819518 1.1322745556075482 255 255 255
0.3758287508986276 -0.4784052199639364 0.8905003010474370 255 255 255
1.3143653830701396 -0.0773949853126652 0.3234096523906373 255 255 255
-0.6950813055032086 -1.0627180215707313 1.6357206212925632 255 255 255
0.9451180358539677 -0.0969388131025504 0.4519298198709345 255 255 255
0.2514805636756137 -0.4797952754042285 0.9674052770194894 255 255 255
1.1939136806879276 0.0578797212660995 0.3354220592453814 255 255 255
1.0502772998591183 -0.0769463430852486 0.4857106148898058 255 255 255
-0.8549242876070764 -0.6464477709987193 1.4698551012193448 255 255 255
1.1092651902674078 0.2895001048846213 0.2295639620388172 255 255 255
1.2641318554949095 0.3396908505508294 0.1498611225181641 255 255 255
-0.2135233683846867 -0.3241742374906398 1.0803295453419057 255 255 255
1.2561969417977679 0.4114828061618709 0.1007153029394949 255 255 255
1.1520115223329981 0.5130111839993665 0.0526521652741536 255 255 255
-0.0734158841284742 -0.2786650056426261 1.0176479993745504 255 255 255
0.9572168271541273 0.5070088035198272 0.1148076602620591 255 255 255
-0.3415898140681559 -0.2991497898962638 1.1223164384731765 255 255 255
0.8616649922620354 0.5921574366102700 0.1583720118956933 255 255 255
-0.2492352808055891 0.1218221420212391 0.8208357624277038 255 255 255
0.8829865566520994 0.6491830572010961 0.1043415247575652 255 255 255
-0.5353369892662059 -0.1352593073471837 1.1236239102330359 255 255 255
0.7010756255887145 0.5401866827852508 0.2439345041329872 255 255 255
-0.3028904643596002 0.0430443359892503 0.9281781210021394 255 255 255
0.7946651686262953 0.6498038510969906 0.1354815955053965 255 255 255
0.7782222633517648 0.6547749296924454 0.1410144171730749 255 255 255
-0.2615707413746362 0.1553063873811027 0.8126680346973960 255 255 255
0.7867270546286136 0.6847791509526644 0.1185816456296180 255 255 255
0.8632535306518321 0.7504287109133969 0.0575648372497142 255 255 255
0.5874913214428261 0.6683907106306286 0.1906628082403188 255 255 255
-0.5619917181268503 0.0196692578497153 1.0405985794476669 255 255 255
0.1313685702529561 0.3761913221302722 0.5621693718448224 255 255 255
-0.4662189260669223 0.1673474873433332 0.8820110052482786 255 255 255
0.4418264959111600 -0.5850627441813456 0.8928045554970847 255 255 255
0.8465012566492147 -0.4189418346700080 0.6779072763953042 255 255 255
0.8033954113466448 -0.4361865362999566 0.7050943395712856 255 255 255
0.8900936776413744 -0.1514128493507982 0.4954588982416990 255 255 255
0.9853924889257968 0.4719941671626646 0.1504904876701687 255 255 255
0.1312120921338149 0.3585372985684825 0.5797971616680853 255 255 255
-0.2866720024516098 -0.7366819523241190 1.1952173135776150 255 255 255
-0.1249301310786137 -0.6201636657045313 1.0743519308485645 255 255 255
0.4736356137715063 -0.5189526345118907 0.8648296137618310 255 255 255
0.4466925090342957 -0.5478682277319447 0.8954173687272533 255 255 255
0.3829679616470210 -0.4816496651936735 0.8915333792420039 255 255 255
-0.7884394023045163 -0.9929690658117121 1.6124839293291791 255 255 255
-0.8953756243759665 -1.1468029942027123 1.7620035232046489 255 255 255
-1.0467867498836867 -0.7223939654728326 1.4835972141318052 255 255 255
-0.3231669508769155 -0.5974837805613475 1.2470268569879117 255 255 255
1.1181224386241695 -0.0748904747298781 0.4675484857405898 255 255 255
1.2926032646988546 0.0582090202056360 0.3256796703876468 255 255 255
1.2447376751137504 0.0719113139583458 0.3387301008352903 255 255 255
-0.8569978847759963 -0.6489923699607552 1.4721411423124806 255 255 255
1.1737912079279056 0.3639210236067676 0.1724667812653138 255 255 255
1.0252029016857307 0.5312378358781515 0.0791120957710234 255 255 255
0.6899853958934248 0.1630317116515125 0.5031938613665154 255 255 255
0.1227678487689579 -0.0566515979994797 0.8250649604143043 255 255 255
0.9650416612378763 0.5340341383004645 0.1370345274175975 255 255 255
0.1014522554470920 0.0027604054614865 0.8157231335907054 255 255 255
0.6930896294732563 0.3123491019309736 0.4237484920998451 255 255 255
0.9291499524343152 0.5969541367953219 0.1160253542394543 255 255 255
-0.1042980247904879 -0.0111915674284475 0.8966016610119496 255 255 255
-0.7970102799610679 -0.2772352850202431 1.2928551105959478 255 255 255
-0.6150918873915385 -0.1761086667593958 1.1694409388391440 255 255 255
-0.6993186867704697 -0.2391207230545440 1.2458453222322552 255 255 255
0.3313230394092983 0.2538970152222970 0.5903688363161699 255 255 255
-0.3084379670324133 0.1033873572553166 0.8646324938175134 255 255 255
0.2189645758247840 0.2344244343145867 0.6478258811591404 255 255 255
-0.2981382793022758 0.0393035108048840 0.9290312308679289 255 255 255
-0.3900276862652463 0.0032385157375634 0.9855271383372366 255 255 255
-0.3247165740322764 0.1342727289707755 0.8472647568884877 255 255 255
-0.8778960634612893 -0.0851315883706825 1.1656066578144895 255 255 255
0.1836648014029532 0.3394685305555720 0.5656358703507980 255 255 255
-0.9108270909418756 -0.1369182958753141 1.2292739123311902 255 255 255
0.6550141049613032 0.6252005391773956 0.2004954245875847 255 255 255
-0.3805790930950350 0.1283507775255623 0.8776751085805690 255 255 255
-0.5344884662855591 -0.0084185598527977 1.0405880807348051 255 255 255
0.1418805723532621 0.3417445656135705 0.5809043307342194 255 255 255
-0.2784770382736526 0.2111489745765507 0.7846582747452120 255 255 255
-0.4528204034963714 0.1371616184096762 0.8951565261047509 255 255 255
0.1285320140171216 0.3738027237568131 0.5633239354502022 255 255 255
-0.4748496693670123 0.1409770017537322 0.9040918905109607 255 255 255
0.8849323861441576 0.7635529971988717 0.0460176331223181 255 255 255
1.1036153190796369 -0.1537990592569702 0.3843380811640280 255 255 255
1.0217245380847828 -0.1728646813333734 0.4252000929234505 255 255 255
1.1033007081724620 -0.1506033171747005 0.4008077297064148 255 255 255
-0.0930324090972192 -0.6024588526553103 1.0859974905283494 255 255 255
1.0289716912113480 -0.3294385076610240 0.5762200340338941 255 255 255
1.1253455436391846 0.3885843174654084 0.1754546631691554 255 255 255
0.1635807920890118 0.0450017699253431 0.7661485047837049 255 255 255
0.5958240469275751 0.2624096493344688 0.4867509267538122 255 255 255
0.7226807580394308 0.5249471666303798 0.2282627447541579 255 255 255
-0.1436119799631719 0.1305194231633315 0.7733927344917735 255 255 255
-0.2789821137635862 -0.0583483149784207 0.9891027517383035 255 255 255
0.6421100178983608 0.5320301959375549 0.2708464193284676 255 255 255
-0.3253980433739401 0.0915687722882557 0.8817954401675294 255 255 255
-0.4070678158246182 0.0370366682639798 0.9583939648873603 255 255 255
-0.1245241917257385 0.2118324419857291 0.7382211104880692 255 255 255
0.1882756359840450 0.3559352366019137 0.5509151353573074 255 255 255
1.0612289221993265 -0.1623431867226435 0.4115582380417440 255 255 255
0.9571656523090937 -0.3386277664969257 0.6011274282567580 255 255 255
1.1344887733875453 0.4550604982109085 0.1123729357168415 255 255 255
-0.1251180666781693 -0.7188468818616016 1.1261496879561754 255 255 255
-0.3028710288971297 -0.7313208797984032 1.2349026443257856 255 255 255
0.4709553583381876 -0.4861766393975948 0.8395796112814802 255 255 255
-0.7116110765217485 -0.9929402781432586 1.5895387778448296 255 255 255
0.9489167173148019 -0.1745983438282874 0.5126137503771986 255 255 255
1.0019073726640890 -0.0522910837480088 0.4243763199877346 255 255 255
1.1225269192377638 0.0131395782728694 0.3658236575449916 255 255 255
1.2130906987912695 0.0329194815957933 0.3783515532886810 255 255 255
1.2179865744328140 0.0733453040508749 0.3540493041358239 255 255 255
-0.8690394540998154 -0.6187367678261371 1.4632711987120519 255 255 255
1.3509844078826063 0.3604819779397701 0.1065134269399408 255 255 255
1.2154041864421572 0.3853746850949253 0.1588056367454165 255 255 255
0.8959535965518626 0.5222462554893239 0.1360827491190975 255 255 255
0.7181532756712699 0.2411045760754646 0.4454691949232146 255 255 255
-0.4976108514534801 -0.2702889427608071 1.1736403299621969 255 255 255
-0.5302943885396729 -0.2317633113344861 1.1683642262484835 255 255 255
0.9933260949401586 0.4653873590590045 0.2173587510081418 255 255 255
0.0730512741013092 0.0757394372341746 0.7799398020341295 255 255 255
-0.2646178075464078 0.0244382770369214 0.9026604568991008 255 255 255
-0.2887079469793150 -0.0548933141685062 0.9853264701551341 255 255 255
-0.6077982031253533 -0.9772079619812395 1.5023655301691763 255 255 255
0.8169381258470843 -0.4324998809995511 0.7019765154162769 255 255 255
0.3641157586195067 -0.4942926575228661 0.8918405431645073 255 255 255
1.0020010261226275 -0.0813533259581332 0.4223932178078851 255 255 255
-0.5134201321348755 -0.5998287138991429 1.3197332123144179 255 255 255
1.1195993532369357 0.3917430173639431 0.1764146914064000 255 255 255
-0.6605268307992560 -1.0323911971208020 1.5886048562767314 255 255 255
-0.3334398460069536 -0.6222549100400272 1.2427360722817724 255 255 255
-0.7112155670789377 -0.6191697645152772 1.3948452821070987 255 255 255
1.3293868428277094 0.2029046770525822 0.2220546493214393 255 255 255
-1.0799777823397179 -0.6575515602874873 1.5540515569425963 255 255 255
-0.3267108860289909 -0.6291805778818258 1.2336733999007095 255 255 255
-0.0203427187452476 -0.9688341381595365 1.2649871504446697 255 255 255
-0.2875609508422929 -0.7353837509867001 1.1836799261559472 255 255 255
-0.2890647183838668 -0.7405407781264541 1.1893589788197039 255 255 255
-0.2198010035747400 -0.7192346139124250 1.1544537999876976 255 255 255
1.0554572204631825 -0.2037283834659995 0.4143869190546763 255 255 255
1.1378868241954478 -0.1451193651497107 0.3825082650577230 255 255 255
-0.6337603098544005 -0.9650027369379064 1.5082127191252583 255 255 255
-0.3213631506904306 -0.6508454261491039 1.1920222979643604 255 255 255
0.8322640564402377 -0.2134828172090906 0.5633790740191316 255 255 255
1.1860683442256885 -0.0427385518024558 0.3397064143032722 255 255 255
-0.0912561565094094 -0.5982697354316482 1.1076172508454230 255 255 255
-0.3184658604713491 -0.6407847217607987 1.2056927927129220 255 255 255
-0.0860041335524819 -0.5955293306453910 1.1096756398590069 255 255 255
1.0490718917334760 -0.1913513199094776 0.5006169904494620 255 255 255
-1.2188219380764735 -0.7473253429169375 1.5566651909298486 255 255 255
1.2794471379477983 0.0935769715217504 0.3101265865734018 255 255 255
1.3008788973789933 0.1541652821692772 0.2866852050794648 255 255 255
1.2438452761718111 0.3668073749800893 0.1367168866245194 255 255 255
1.2207436305619694 0.2777386349378119 0.2184085897149544 255 255 255
0.9402181378548562 0.5109535180973204 0.1101028912008246 255 255 255
0.9950886710304871 0.5003075793338070 0.1034164327642344 255 255 255
1.0327182897689227 0.6089392004764989 0.0136431117631162 255 255 255
-1.3163250934641280 -0.6918376427249129 1.6379940545438458 255 255 255
1.0519791533864336 0.4989258816975539 0.1748014103756379 255 255 255
0.7339647820939064 0.4505611314101721 0.3359729240701128 255 255 255
0.3117268577930190 0.3242138456210526 0.5375385851084715 255 255 255
-0.5435199063053400 -0.2234459430334890 1.1733833651284398 255 255 255
0.5778942316096050 0.6513210768778990 0.2027038680568722 255 255 255
-0.3168410454071012 0.1396618943424834 0.8147091444410255 255 255 255
-0.2808994800496980 -0.0450678357445238 0.9829943535379213 255 255 255
0.5723790152962920 0.6771022972152565 0.1921238399686445 255 255 255
-0.3601545051771602 -0.0234346261246454 0.9922222694890337 255 255 255
0.1315804452647455 0.3548224922404213 0.5810876343333415 255 255 255
0.7111020071738494 0.9707766853443047 0.0140731583587979 255 255 255
-0.5482616119545654 -0.8045501485838926 1.2572397959507242 255 255 255
-0.5012220183942162 -0.7985457296520373 1.2443166155760075 255 255 255
1.0580776172541420 -0.1891011809554934 0.4085874300537018 255 255 255
1.0912718374573842 -0.1429738893363305 0.4011857734077964 255 255 255
-0.0874682390566974 -0.6077047512598437 1.0820892949876875 255 255 255
-0.6653673013245589 -1.0236943879743094 1.5635049708248214 255 255 255
-0.3645041113991574 -0.6524379789361570 1.2282320676281637 255 255 255
0.8847340033933193 -0.1761158664170679 0.5370489293207772 255 255 255
0.2972806812113689 -0.5099498704137488 0.9708535095072097 255 255 255
-1.1181066776033823 -0.7248503838302582 1.5086231800395460 255 255 255
-1.1788389111228668 -0.7201940013544430 1.5232008504227821 255 255 255
-1.2087826557799701 -0.7421984674635951 1.5492244770190240 255 255 255
0.8877449658937380 -0.1098289052885293 0.5566673671318121 255 255 255
1.2924395203844625 0.0987972164785633 0.3091460732781659 255 255 255
1.4026865986592156 0.1566326589234777 0.2553614296051165 255 255 255
1.0993409612418645 0.5324786612907531 0.0432937000198450 255 255 255
1.2252659267774106 0.4381708540144293 0.0897063100785687 255 255 255
1.1242658649315445 0.6639998109698553 -0.0456180490938749 255 255 255
1.0766242360626848 0.6838838767652078 -0.0455013718012083 255 255 255
1.0467561588495613 0.4598077695666163 0.2020468536225657 255 255 255
1.0397025615388884 0.8771285271223377 -0.1108954201003343 255 255 255
-0.2260423159331881 -0.0682190683985873 0.9623946302248316 255 255 255
-0.0319899147798530 0.1349391606419179 0.7622738104371778 255 255 255
0.6220911235559470 0.6848219169222247 0.1621301245346558 255 255 255
-0.4245927587446783 0.1211116727508461 0.8888790115482630 255 255 255
-0.3834412292369471 0.1775907908093934 0.8358502637515812 255 255 255
-0.8684754357040170 -0.0965279075524359 1.1752637690040393 255 255 255
-0.9121583972835652 -0.1395477736111528 1.2305543759011681 255 255 255
0.2483755884781402 0.5989338091432224 0.3798255241434951 255 255 255
0.8203067992335491 0.9783086533232392 -0.0423732988403458 255 255 255
-0.2529193824814264 0.3098942245774450 0.7339573183969157 255 255 255
-0.3603580258115731 0.3053121166692514 0.7611181330030696 255 255 255
0.8264777357122739 1.0031017295425499 -0.0493511105308357 255 255 255
-0.3255735733461762 0.3597892014475725 0.7175309136895063 255 255 255
0.4587458725574010 -0.5628101441992701 0.8974404433441849 255 255 255
1.1100678842394984 -0.0073253541969009 0.3737288589010177 255 255 255
0.9245204770507272 -0.1595935378369612 0.5393526327505889 255 255 255
1.0469526291331874 -0.0780193345974958 0.4765029657214441 255 255 255
0.9125552737740179 -0.1110973911162176 0.5466737903681675 255 255 255
0.3852352316414311 0.2693236024235066 0.5511148747347523 255 255 255
-0.5445066275145525 -0.8120913263960787 1.2592243979256477 255 255 255
-0.5533760803613377 -0.8094018203659665 1.2819154988748904 255 255 255
-0.1419682253762744 -0.6341953411006216 1.0842812405234881 255 255 255
1.0896931870927986 -0.2070861568300049 0.4206224656214292 255 255 255
0.3676979219901391 -0.5913609288810138 0.9372755542368871 255 255 255
0.7173861997167563 -0.4835388887936980 0.7738378114770468 255 255 255
0.8675195635151454 -0.1976334958443786 0.5339192266157582 255 255 255
-0.6386176203334610 -1.0385860709391856 1.5804851292236890 255 255 255
1.0454099007111566 -0.0810766967098119 0.4209729507933861 255 255 255
-1.1794944872196851 -0.7272395830168534 1.5292733785980488 255 255 255
0.9058822167450415 -0.0304845178923223 0.4852106412040342 255 255 255
1.1853291765226572 0.3577986122762953 0.1500677103748913 255 255 255
1.2024529224673302 0.3684378756102458 0.1367285588849256 255 255 255
1.1923575497059460 0.4430597262378448 0.1021553999854916 255 255 255
-0.2158339445558042 -0.3227630166554682 1.0791936212480771 255 255 255
0.6047471574581067 0.2122249593180664 0.4978652515839883 255 255 255
0.9856638064991898 0.5217534593098989 0.1582596892375037 255 255 255
1.0531419702953144 0.4973638196991743 0.1759777928723736 255 255 255
0.1167145154174050 0.0024818179954673 0.8035764982053735 255 255 255
0.8510024511418663 0.6156447394081841 0.1343569727264722 255 255 255
0.9466859000617660 0.7722615583612225 0.0189782916895354 255 255 255
1.1008832105805766 0.9187716825592602 -0.1324492842609857 255 255 255
0.4771899537521165 0.6164518785911071 0.2576338324143492 255 255 255
0.8992787199399572 0.7973581364793887 0.0272745969262758 255 255 255
-0.2480204573255840 0.1410511091970106 0.8076511412731566 255 255 255
-0.5875557077016138 -0.1795911158371037 1.1559038795546268 255 255 255
0.9515416163349641 0.9240039674898810 -0.0850431037718877 255 255 255
0.1385137733164896 0.2981373804287630 0.6192431516496342 255 255 255
-0.6387745425868085 -0.2312182129813740 1.2234804649579925 255 255 255
0.5536785244365028 0.4593535136131823 0.4080809190986177 255 255 255
0.9587890499775540 0.9354111676293115 -0.0867396117401995 255 255 255
0.0785323482451545 0.3014495330084610 0.6361551624818524 255 255 255
0.0115066039467919 0.2900680772781328 0.6587070537780164 255 255 255
-0.6058263504105206 -0.1227823983531824 1.1379501660226605 255 255 255
0.3045652423508045 0.5071005228482317 0.4393569671916460 255 255 255
-0.7122326425178436 -0.0593176122017152 1.1155848757892119 255 255 255
-0.4704620077082984 0.1700006831050249 0.8812589379995632 255 255 255
-0.8822689160698651 -0.0456668281236237 1.1403312142049007 255 255 255
-0.9246839659791841 -0.1897365517541987 1.2846467370772048 255 255 255
-0.2270731326598465 0.3357789755116158 0.6982902887153779 255 255 255
0.2802265247616447 0.6903229296695557 0.2970762712869259 255 255 255
-0.9225659176691359 -0.0993096059082426 1.2040727994610325 255 255 255
-0.4731034011115405 0.2031561535519488 0.8635259504954771 255 255 255
-0.2710250365191946 0.3115977287053493 0.7332159442297659 255 255 255
-0.8317023363079130 0.0210464884853359 1.0847081919766142 255 255 255
0.8803355986365773 -0.1983419355122020 0.5501890121150161 255 255 255
