ply
format ascii 1.0
element vertex 688
property double x
property double y
property double z
property uchar red
property uchar green
property uchar blue
end_header
-0.1406629788245217 0.2914406464259858 1.0578440330247743 255 255 255
0.0118672022716080 0.3201428959881971 0.9943678235521665 255 255 255
-0.1619540259976975 0.2878008758265214 1.0633404846852867 255 255 255
0.0033934868009462 0.3171440389265410 0.9911242521679018 255 255 255
0.1637682296491363 0.3457317815390670 0.9237227932867889 255 255 255
0.2352316640204570 0.3584130533076131 0.8871537002675556 255 255 255
-0.1289904227459369 0.2938349392570228 1.0498763584246587 255 255 255
-0.0594604056092276 0.3071231656430755 1.0201420691627789 255 255 255
-0.0297511554614829 0.3114147075529381 1.0054728898656684 255 255 255
0.1475837009766909 0.3432153910103954 0.9277479241674547 255 255 255
0.1301554499498696 0.3398039941438986 0.9335739660229354 255 255 255
-0.2215673599630597 0.2784873689225815 1.0931745980585372 255 255 255
0.0280892067504759 0.3219362208852541 0.9784970268516417 255 255 255
0.0588978000326126 0.3282536887760923 0.9665848763322087 255 255 255
0.3125150028702226 0.3722822537098884 0.8511781424444727 255 255 255
-0.1337219656779691 0.2941546346813908 1.0500623392436186 255 255 255
-0.0640583748022472 0.3077133559737728 1.0212854809338872 255 255 255
-0.0340693542422610 0.3115619331741653 1.0041694581712175 255 255 255
0.3018883256823033 0.3706249678221778 0.8536306470192097 255 255 255
0.0478200961838997 0.3271289884412854 0.9671817276887307 255 255 255
0.0180565271461912 0.3227328790394273 0.9825731693607800 255 255 255
0.0621585228896873 0.3293065894743794 0.9576246772600445 255 255 255
0.1659841826292434 0.3475151865575938 0.9138992499325443 255 255 255
0.1193249454994110 0.3401320598093558 0.9349849823791843 255 255 255
0.1861493968404790 0.3519172490463216 0.9059333918974151 255 255 255
-0.1985902571523621 0.2841423889329957 1.0732056311439422 255 255 255
-0.0795907357486989 0.3054470798329936 1.0209875834244251 255 255 255
-0.0622467221958218 0.3083668477239234 1.0135330817622128 255 255 255
0.1187048575712861 0.3396651831085054 0.9293537759877371 255 255 255
-0.0669434997269578 0.3087636312898733 1.0123858918369892 255 255 255
0.2451799151922183 0.3631880925845778 0.8756168385550049 255 255 255
-0.1890575162608199 0.2864151557825112 1.0695004153559804 255 255 255
-0.1717832661271350 0.2908715468043468 1.0601686968963993 255 255 255
0.0511549411044827 0.3296173198142927 0.9585962032829007 255 255 255
0.0690232807650490 0.3331905858083437 0.9508259493441660 255 255 255
0.1451415580189401 0.3462861732399514 0.9164652175591179 255 255 255
0.2163039782252838 0.3582119677650564 0.8838375380388914 255 255 255
0.2596061031138621 0.3662418210997824 0.8684091579686095 255 255 255
-0.1132113926536311 0.3010083338634670 1.0292768139075861 255 255 255
0.0965275291418823 0.3373633921582071 0.9346441274401069 255 255 255
0.0872942159658692 0.3360265095623811 0.9413374627020206 255 255 255
0.2070763213115345 0.3566857973215862 0.8854401816462101 255 255 255
0.0766797301609374 -0.3031268253125561 1.1357478107820667 255 255 255
0.4879797409525500 -0.0431825676772363 0.9377950015728597 255 255 255
-0.1402263068505590 -0.1478869906894263 1.2907234470133373 255 255 255
0.4820668021770480 0.2211197666619729 1.0258890099300579 255 255 255
-0.2279893452214861 0.2035908501139372 1.2877499645769368 255 255 255
-0.2207932782827601 0.2193563337507506 1.2800287870010640 255 255 255
-0.0931296512018394 0.2188200933934858 1.0735303369318778 255 255 255
-0.4221954192697555 0.1887555418910846 1.3540408795491596 255 255 255
-0.3739172129120147 0.1972820645005777 1.3320928529789615 255 255 255
-0.2012638070530981 0.2133984282596726 1.1200524696316663 255 255 255
0.0822315570413235 0.2882046948793997 1.1033436001870509 255 255 255
-0.4260100745695774 0.1982986965775044 1.3125319923018406 255 255 255
0.0824784780330479 0.2897580384838712 1.0852161466529786 255 255 255
0.4527010437544696 0.3644224661885289 0.9510104148648053 255 255 255
0.2702492900243991 0.3299206641795496 0.9873405864683968 255 255 255
0.3753887243787890 0.3477353998553419 0.9345098719819402 255 255 255
0.4442534732870866 0.3637140804316914 0.8916382426336282 255 255 255
0.0831353159082244 0.3038257297911140 1.0486415917159824 255 255 255
-0.1705981740541296 0.2530262891662873 1.1097359211698912 255 255 255
-0.5282035300346124 0.2023773631315633 1.2956305995560715 255 255 255
-0.2221232055101243 0.2601967960398586 1.1443311735082844 255 255 255
0.1538059494367410 0.3271291025077172 0.9769074713170802 255 255 255
0.1420901189962347 0.3260507815763849 0.9830497629424171 255 255 255
-0.1951838604577918 0.2654355723060362 1.1290783009444338 255 255 255
-0.3255219832816030 0.2450877065637811 1.1981249085410131 255 255 255
-0.0771128978665185 0.2863390655591900 1.0717078831358577 255 255 255
0.1716190495862486 0.3336909564485246 0.9561661925084826 255 255 255
-0.2385282195742908 0.2600978820652275 1.1293064336885585 255 255 255
0.3509863495225467 0.3644068775225540 0.8646653859012758 255 255 255
0.0661835673532725 0.3170094077109349 0.9979311539383975 255 255 255
-0.0740868856526165 0.2919565708767371 1.0586933252321833 255 255 255
0.3197177271166800 0.3611350340813746 0.8668744666323066 255 255 255
0.3876477282402009 0.3758594022652404 0.8491918804535912 255 255 255
-0.2175203809835855 0.2702313999062778 1.1205440585693793 255 255 255
0.1054896970661225 0.3268888306238935 0.9688420300135832 255 255 255
0.1293920286925268 0.3322523579855434 0.9571746607444180 255 255 255
0.3656276592226155 0.3755384409146096 0.8528680406126761 255 255 255
0.3116844967082821 0.3670821289687662 0.8718232243401269 255 255 255
-0.4294573247908602 0.2051702720108892 1.3115906294846127 255 255 255
-0.2062000715121872 0.2799803226009090 1.0841277722795095 255 255 255
0.3415811398889597 0.3781238687234494 0.8420658408094712 255 255 255
0.3290674405789451 0.3762938710554073 0.8467910958673102 255 255 255
-0.1121183759298763 0.2990347365582586 1.0402801975539493 255 255 255
0.0131698461403671 0.3204837313946456 0.9798814241356810 255 255 255
-0.4974076397002778 -0.4222244061374107 1.4551424690762012 255 255 255
0.4788919636243173 -0.0924803247727081 0.9504393924831784 255 255 255
0.3726904864967987 0.0359583710078925 1.0311108480597828 255 255 255
-0.5333597772036832 -0.0005004856909510 1.5680756636133850 255 255 255
-0.0104537535952982 0.2111427400676602 1.1194553479029832 255 255 255
-0.4795932838476666 0.1535398852612040 1.4195595444679141 255 255 255
-0.2131412966133759 0.2040588781867538 1.2854935226285775 255 255 255
-0.2120239060715008 0.1826663229659546 1.1500364858706211 255 255 255
-0.1997670321672600 0.1907323551951370 1.1256667972003229 255 255 255
-0.5243689723707234 0.1928394807782468 1.4512156483768308 255 255 255
-0.4576374384946569 0.1856425657654634 1.3578563512366624 255 255 255
-0.3630711731327581 0.2057982281245914 1.3216839442903439 255 255 255
-0.4034571625971468 0.1983774746315872 1.3168150924566397 255 255 255
-0.4350055571582539 0.1924810910222012 1.3166951293005547 255 255 255
-0.4192052546679612 0.1993511757364748 1.3177510808414699 255 255 255
-0.3103855491630716 0.2196389563368251 1.2696177378429745 255 255 255
0.0766802059045958 0.2887310058577005 1.0991085895513351 255 255 255
-0.4717353910107482 0.1922865660854400 1.3359837185977224 255 255 255
-0.3740881270775716 0.1718128648258119 1.0772054100708104 255 255 255
0.0621963129474878 0.2895345334165331 1.0914966324513065 255 255 255
-0.2422560302293268 0.2366332998631924 1.2215340088547340 255 255 255
-0.2920161010385405 0.2285530769687156 1.2406790571898014 255 255 255
-0.4827402042573745 0.1994451940304360 1.3136668753774341 255 255 255
-0.4154016553587101 0.2119601148041999 1.2822626310054428 255 255 255
0.4441320483312272 0.3649774786922284 0.8982101504384552 255 255 255
-0.3586668907043493 0.2229008633917995 1.2482951776673081 255 255 255
-0.2814807037130949 0.2364171848911993 1.2166779112173762 255 255 255
0.3809637649575373 0.3566507212820851 0.9220629025094123 255 255 255
-0.0774432363637771 0.2663462143934137 1.0587903032688946 255 255 255
0.0899869244781595 0.3063733068278016 1.0344194929800326 255 255 255
0.3599318402583940 0.3589980089822444 0.8921671596700289 255 255 255
0.1242874876781634 0.3190250829284293 0.9949677641795853 255 255 255
0.2081749943452165 0.3361809239759337 0.9549028433579609 255 255 255
-0.5757005364708565 0.1983459398962762 1.3090644605655744 255 255 255
0.2614585183119127 0.3487073493175847 0.9232552262161997 255 255 255
-0.2419671029930939 0.2610823596230984 1.1474001471548743 255 255 255
-0.2336387001420528 0.2637550283600225 1.1498790469051965 255 255 255
-0.1692132144156072 0.2726410762916578 1.1064719700567556 255 255 255
-0.2094985694473637 0.2688571499022785 1.1172183882957150 255 255 255
0.1389740430152848 0.3318573536225875 0.9655821931248969 255 255 255
0.3337062782170825 0.3659567203552125 0.8691407275301302 255 255 255
0.1172409743452771 0.3328456791892693 0.9562789153535971 255 255 255
0.3351883940829126 0.3705434560889662 0.8604283756454087 255 255 255
0.3197453886395039 0.3666417291947224 0.8522320516075190 255 255 255
-0.0397512643397695 0.3103835151971306 1.0330651437778133 255 255 255
-0.0268877357442499 0.3106804107448995 1.0129103181047858 255 255 255
-0.1353308527254420 0.2926523002213797 1.0545861774247367 255 255 255
-0.2251904721757003 -0.3500874656074269 1.3022776130522722 255 255 255
-0.4346435413542977 -0.3824555476135787 1.4306504811091258 255 255 255
-0.0767416713957831 -0.2392859884049108 1.2521742249952608 255 255 255
-0.5161569079595534 -0.2228983693685468 1.4952229681085001 255 255 255
-0.2785965150983669 -0.1230173894441040 1.4079087739000871 255 255 255
0.1303208216743545 0.1721500948644596 1.2398940854986602 255 255 255
0.3082222759559059 0.2027278338839649 1.1380518563105841 255 255 255
0.0900132047541561 0.1912485056323465 1.2671033809293115 255 255 255
-0.4995351603236328 0.1263575408786947 1.4847342704798645 255 255 255
-0.0278483326709704 0.2102098786775342 1.1086156276901420 255 255 255
-0.2291490637077649 0.2030966542784938 1.2886260722301714 255 255 255
-0.2414897160513387 0.2122786068442908 1.2930864164273732 255 255 255
-0.2059768435250930 0.1952246706233680 1.1242112129679560 255 255 255
-0.4946399202966016 0.1764004782362703 1.3794111050502558 255 255 255
-0.2694567477088086 0.2227415435612157 1.3131880982161857 255 255 255
-0.4244904655360173 0.1965958038557618 1.3314273289674468 255 255 255
-0.5308239561765911 0.1873391569777629 1.3461391280115738 255 255 255
-0.2736376803594907 0.2360113089174846 1.2235026502866742 255 255 255
0.2195273074207318 0.3251440517119799 0.9866861530758610 255 255 255
0.0019633328217612 0.2903426918826817 1.0747538987930749 255 255 255
-0.2410258715219848 0.2482177777538137 1.1833045536239801 255 255 255
0.0645938540777089 0.3001739707441279 1.0337284727560982 255 255 255
-0.0504277519107674 0.2748051172458048 1.0448289562288142 255 255 255
0.0930728565378445 0.3097787096171576 1.0224290250264478 255 255 255
0.1523356936172311 0.3207784205272604 0.9941689195671319 255 255 255
-0.0072112140980969 0.2930661166335136 1.0541772092656845 255 255 255
0.0810974881151330 0.3124428017564602 1.0185048558429886 255 255 255
0.3899739426969386 0.3686163953760677 0.8786431904008607 255 255 255
0.3407570335451959 0.3753339809307583 0.9233003947192220 255 255 255
0.0237447385694698 0.3058949646305542 1.0080792527158215 255 255 255
0.3290152576944889 0.3633995723899250 0.8845698973385492 255 255 255
0.0189898452220518 0.3091422999230193 1.0179795346935663 255 255 255
0.3732901911731688 0.3746358234070364 0.8763761284794365 255 255 255
-0.1889743699967550 0.2745828225139579 1.1048830188260643 255 255 255
-0.0172626902040811 0.3149633487644592 1.0517215821267554 255 255 255
0.3655530917647756 0.3755874287888243 0.8530839317268404 255 255 255
0.0824520263471471 0.3264169458743642 0.9627753171709719 255 255 255
0.1669882031874668 0.1692184678655664 1.1962956411045860 255 255 255
-0.1716709701779329 0.1526458204560652 1.1759136413740983 255 255 255
0.0613547658662075 0.2849135517801056 1.1004895148386247 255 255 255
0.2405281228182137 0.3154250941815366 1.0173194700170232 255 255 255
-0.2746527391001186 0.2267244683803504 1.2534196095977812 255 255 255
-0.2394623124852977 0.2356196626104978 1.2351893384378521 255 255 255
0.2808198758562934 0.3313370359963912 0.9842382576515281 255 255 255
0.3691331290702600 0.3579720635656405 0.9641054999379244 255 255 255
0.3733762155258908 0.3522098313881488 0.9215996894219494 255 255 255
0.1725332463504601 0.3207509285971111 1.0101702072504368 255 255 255
-0.0725928764386401 0.2764715118815744 1.0526891697647542 255 255 255
-0.1047226902026224 0.2794920860611194 1.0696519858984712 255 255 255
-0.0394028614900881 0.2967121350864104 1.0469828007399657 255 255 255
0.0359234037164406 0.3116887607729963 1.0212157488389122 255 255 255
-0.3739759568332968 0.1889773835371557 1.3515797864819044 255 255 255
-0.3743548458792243 0.1912820755196405 1.3607543666541400 255 255 255
-0.2240947728336842 0.2089978550175218 1.1332063397642429 255 255 255
0.2045465515100808 0.3071697465816561 1.0310920391757996 255 255 255
-0.3942676784545101 0.2050938138638383 1.3117528056227759 255 255 255
0.3566810839725734 0.3541999120440089 0.9216053225899784 255 255 255
0.1703074423215503 0.1580608074021206 1.2057783252757801 255 255 255
-0.1777171223059999 0.1530147085371090 1.1619074419550905 255 255 255
-0.1982504296135783 0.1636609319771702 1.1257609798162171 255 255 255
-0.0209572066166768 -0.3348391706763469 1.1882119249377565 255 255 255
-0.2057759651399440 -0.3661633443438448 1.2836363637611683 255 255 255
-0.4979611037354931 -0.4127053629625668 1.4642441736978702 255 255 255
-0.0226138027196896 -0.3068156197355347 1.2008590883265793 255 255 255
-0.2240805910352894 -0.3399217767272051 1.3145765229995967 255 255 255
-0.3962673160682346 -0.3328529326037912 1.4091797386285219 255 255 255
-0.4914489100769126 -0.3422418152572337 1.4770950859247325 255 255 255
-0.4837743002641854 -0.2518033976753238 1.4729396223296156 255 255 255
-0.2384448924585385 -0.0525537732409358 1.3849069452717693 255 255 255
-0.2382878464447309 -0.0295344604016574 1.3857812672661689 255 255 255
0.3168079454032671 0.1488775477029673 1.1202146829577182 255 255 255
0.1508514051338183 0.1584289271005044 1.2191418316860458 255 255 255
-0.2313634771625982 0.0714520931976257 1.4064100249317015 255 255 255
-0.7039492444055145 0.1067768400296379 1.5521178534858926 255 255 255
-0.5950890258993049 0.0213798924203452 1.8363332018419474 255 255 255
0.1405538971675249 0.2109099469251099 1.2429306595888789 255 255 255
-0.4447562804277190 0.1067856874531135 1.5498167459054839 255 255 255
-0.4211379216057693 0.1150197550876388 1.5323815409315422 255 255 255
-0.2095990507213656 0.1750560509845798 1.1343953209299791 255 255 255
-0.2074286180750426 0.1782842060602977 1.1185250982909269 255 255 255
-0.2317640256819515 0.2004002037070342 1.2972818781649624 255 255 255
0.3547447160359463 0.3452698492702266 0.9398245579231457 255 255 255
0.3133548552896059 0.3334098875137418 0.9586448323840426 255 255 255
0.3997849526757502 0.3579625456670641 0.9198754777943545 255 255 255
0.2457415992218319 0.3212268360236884 1.0148379688666278 255 255 255
-0.2172244911975991 0.1930233159767354 1.1363697681953695 255 255 255
-0.0667601053202223 0.2289485119112680 1.0473567991506467 255 255 255
0.1711618464632512 0.3074678974523577 1.0494003181094946 255 255 255
0.3110628968994247 0.3393494748521975 0.9605487183956241 255 255 255
-0.2076361967907432 0.2190476034944102 1.2707541854246789 255 255 255
0.4018531150866096 0.3597638247476338 0.8904552131632100 255 255 255
-0.2116268114371569 0.2194319408149359 1.2753234703659633 255 255 255
0.2075350767975550 0.3190240351121165 1.0222124392897953 255 255 255
0.2433658439817119 0.3259798604379234 0.9948988954792615 255 255 255
0.2537795623127264 0.3293636788066356 0.9871029041166852 255 255 255
-0.2300825988764039 0.2190709440445193 1.2785380938175166 255 255 255
0.1084172723195458 0.2998359841162124 1.0688045557944115 255 255 255
0.2484297375188671 0.3321369228592599 0.9800735818101480 255 255 255
0.0717454135103992 0.2914518125230661 1.0918396955238698 255 255 255
0.1073584376023544 0.3008612874675289 1.0805551756547815 255 255 255
0.2032706045506352 0.3211933823411357 1.0098048513918165 255 255 255
0.1101919003750389 0.3002741619303073 1.0646862806843984 255 255 255
0.1888605456417665 0.3180857708216021 1.0128619276923807 255 255 255
0.3788706051729713 0.3614188783045420 0.8985177768965145 255 255 255
-0.2425158911622756 0.2191854282822661 1.2792885542523571 255 255 255
0.3890155584532291 0.3650690145124713 0.8901815038234075 255 255 255
-0.3896355099745428 0.1844147171322312 1.3634784586571209 255 255 255
-0.3318212947022241 0.1983586040466725 1.3314729665501321 255 255 255
-0.2204249792642994 0.2243602477381019 1.2631328205150378 255 255 255
-0.2072407131828591 0.2277160088007646 1.2567861437259644 255 255 255
0.2353547349817200 0.3292403344896800 0.9769461903206791 255 255 255
0.2947290772427813 0.3439343800800634 0.9470534087667706 255 255 255
0.1676471094225462 0.3154606517858536 1.0354282550305669 255 255 255
0.2114680127444757 0.3242186574672044 0.9922695755161577 255 255 255
-0.3540470873524857 0.1933178754699334 1.3353219559370508 255 255 255
-0.2834626396693070 0.2095977536711069 1.2962816113017164 255 255 255
0.1761703399708958 0.3160529617309804 1.0117363248850979 255 255 255
-0.3820815553246723 0.1902810324892862 1.3595333798545133 255 255 255
0.0663924578080604 0.2924935932229875 1.0818962041045062 255 255 255
0.2575502700856145 0.3370395228967000 0.9642634236712704 255 255 255
0.0599782425990973 0.2923175905279081 1.0817433699513543 255 255 255
0.1639392925657841 0.3170877745857670 1.0168544763861558 255 255 255
0.2617212212077114 0.3392844394816885 0.9539764248639742 255 255 255
-0.2603779158954262 0.2187600136699994 1.2744992741365708 255 255 255
0.1042973902820421 0.3038256440894749 1.0533408320979731 255 255 255
0.3061165348534338 0.3501880189489799 0.9286991076283071 255 255 255
-0.3617003426357526 0.1957108998952526 1.3325433269955838 255 255 255
-0.3846826830049297 0.1903425267964964 1.3479911147668844 255 255 255
0.0936579171715239 0.3009309524918762 1.0556455083787597 255 255 255
0.1370907724029777 0.3108465988003148 1.0278040031181934 255 255 255
0.1551727113056423 0.3155666495725900 1.0211632838194529 255 255 255
0.2558058969197221 0.3387643494782209 0.9558901712169983 255 255 255
0.3391158456187013 0.3594479727272699 0.9041654156399324 255 255 255
-0.3394791620662416 0.2017691236332715 1.3194213304485429 255 255 255
-0.2673577576271562 0.2185797263829850 1.2785003618730606 255 255 255
-0.5054157278080398 0.1636217469033099 1.4156718461354636 255 255 255
0.3854143468992479 0.3735012536653315 0.8817875931086449 255 255 255
-0.2823332688831437 0.2158597580319361 1.2847975046462041 255 255 255
0.0388601708293130 0.2896075043440387 1.0914573186592484 255 255 255
0.2063252936561675 0.3315496214706632 0.9941710636351688 255 255 255
-0.3433710006210973 0.2028482522553059 1.3146287772092435 255 255 255
0.0461160936883349 0.2926670132439657 1.0786045354350522 255 255 255
0.2355209117593589 0.3370326490298865 0.9634061570576993 255 255 255
0.4207828661439041 0.3805582664247473 0.8537933976568732 255 255 255
0.1216944014348753 0.3116498629898525 1.0279802950762935 255 255 255
0.3976054701131542 0.3761568351159426 0.8636778644030487 255 255 255
-0.3208988013229765 0.2068276490695971 1.3041412469896942 255 255 255
-0.2709317294787414 0.2203890026802950 1.2597335321864289 255 255 255
0.2712096460182298 0.3482983060451628 0.9398564171011647 255 255 255
-0.3807492148995850 0.1977744334515839 1.3381498095359952 255 255 255
-0.4790601905439127 0.1732299230523351 1.3891636711204782 255 255 255
-0.2606186113880851 0.2239727175930066 1.2574999969792886 255 255 255
0.1546540099347880 0.3198982037724569 0.9989832930081164 255 255 255
0.3269270902507753 0.3607228398203848 0.8971183681208954 255 255 255
0.3524986378859949 0.3664289701768887 0.8815258113935263 255 255 255
-0.4879298688757352 0.1719127424911919 1.3938268146125168 255 255 255
-0.3147480294368057 0.2122565809548553 1.2859660663176751 255 255 255
0.1255886350377828 0.3144421392004570 1.0177585560190607 255 255 255
-0.4406146902736863 0.1834635740721575 1.3645064088787535 255 255 255
-0.2959930439080773 0.2174035062332917 1.2734583587926807 255 255 255
-0.2734531474936794 0.2230884474733426 1.2633542914012121 255 255 255
0.0325288757068840 0.2924488717496718 1.0720476095760922 255 255 255
-0.3912200181999985 0.1950905584126170 1.3305846464661713 255 255 255
0.2617591843139859 0.3467862234499917 0.9328313955319318 255 255 255
0.3899471471200950 0.3762501712688699 0.8545281841393955 255 255 255
-0.4887200872949499 0.1744539067429056 1.4037214499886113 255 255 255
-0.2633776355967470 0.2254006174964709 1.2504130882561721 255 255 255
0.1537275186659350 0.3234238351820498 1.0072278211006100 255 255 255
-0.2662568029152741 0.2252530182483765 1.2522751123304090 255 255 255
0.1098481096358657 0.3123616183444329 1.0201285930341348 255 255 255
-0.4363302660014901 0.1870836176631006 1.3524969116759458 255 255 255
-0.3521543044331965 0.2060468426467448 1.3013633480604678 255 255 255
-0.2947455367341512 0.2196841179188977 1.2686730170215341 255 255 255
0.0438908238154276 0.2982857051642851 1.0584966751648146 255 255 255
0.3730459395209476 0.3735525962736723 0.8552673414688075 255 255 255
-0.4397920736777661 0.1870893390591004 1.3554666980937848 255 255 255
-0.3994619208520005 0.1960476340756256 1.3299435226874070 255 255 255
0.0362538903360701 0.2975540844944558 1.0678388634716782 255 255 255
0.2014092155267608 0.3341738640096130 0.9492544355600652 255 255 255
0.3083099438992019 0.3597245925326162 0.8910175776102123 255 255 255
0.1244015832457590 0.3175631287164411 1.0025924010236138 255 255 255
-0.4219423412774210 0.1925056891869854 1.3396012549187475 255 255 255
-0.2384272964908085 0.2344009022232791 1.2226887274338925 255 255 255
0.3022303283046224 0.3610637466807036 0.8944713363318869 255 255 255
0.1587160553707427 0.3284213746039129 0.9867097509589673 255 255 255
0.1758515793508479 0.3310726168316538 0.9710728350876270 255 255 255
0.1134233647375602 0.3169315452880639 1.0091403679496747 255 255 255
0.3113397248929086 0.3636585867960016 0.8877345753191284 255 255 255
0.1720818210226209 0.3326904164478890 0.9749379247586951 255 255 255
-0.3712420113059522 0.2054645967088637 1.3013466584276543 255 255 255
0.3672774184122307 0.3766176518505655 0.8470141752296616 255 255 255
-0.2988232825331965 0.2227496970985152 1.2553045673468421 255 255 255
0.2818903741983760 0.3577171178745022 0.9027353361642927 255 255 255
0.3296405868474821 0.3682226648750131 0.8700475100801413 255 255 255
-0.2793814627359836 0.2280694438024833 1.2425285747353172 255 255 255
0.2036644822035996 0.3401410652251968 0.9475519898843885 255 255 255
0.2109131108309867 0.3415874905777656 0.9391391185936193 255 255 255
-0.4282276447514691 0.1946144859452431 1.3335804404315668 255 255 255
0.0529599980379380 0.3047448504519807 1.0354342625316457 255 255 255
0.0729484777826857 0.3106397436977053 1.0252737742597500 255 255 255
-0.4443310745344951 0.1902459015544409 1.3386082967071431 255 255 255
-0.2479477540607906 0.2364209433037301 1.2175677921973662 255 255 255
-0.3455295529479674 0.2133358978216204 1.2769793987710383 255 255 255
0.2432241171963732 0.3513158550312330 0.9225112778326903 255 255 255
-0.0854321324129081 0.2661321253964157 1.0662090755185432 255 255 255
0.1200120195809338 0.3234619289970248 0.9942623694190618 255 255 255
0.3263443575533973 0.3701114712962861 0.8624059914554723 255 255 255
0.1864236791541178 0.3392386204316884 0.9520299312161311 255 255 255
0.1542190751984220 0.3307332678761727 0.9665669805239139 255 255 255
-0.4405061021335426 0.1941629033484125 1.3304804876018608 255 255 255
-0.2711908438796851 0.2333232419909441 1.2251393565582518 255 255 255
-0.3111225688872228 0.2245283546590970 1.2507861274837531 255 255 255
-0.4477975358997135 0.1930181657276453 1.3319333900772925 255 255 255
-0.3787426438597628 0.2102742799438468 1.2936004675372921 255 255 255
-0.3233657338850667 0.2235089300620892 1.2587473661124977 255 255 255
-0.2715339138588435 0.2340185462559874 1.2181346731773672 255 255 255
0.0707881803723724 0.3149880503717544 1.0130518944914582 255 255 255
0.0520076862779768 0.3107853148860835 1.0226283432814827 255 255 255
0.1172956060290513 0.3265663381055068 0.9855083704597165 255 255 255
0.1739061804951980 0.3407081753199588 0.9502988346960954 255 255 255
-0.3550687324260204 0.2177010145759017 1.2693059858081046 255 255 255
0.0638339342229157 0.3153576789681916 1.0111104591070394 255 255 255
-0.4130095436641819 0.2043501234144109 1.3011686394096564 255 255 255
-0.3780686107450357 0.2123196532711544 1.2771482929183584 255 255 255
-0.0085942545635334 0.2949252715675454 1.0443315669458166 255 255 255
-0.3953184231122089 0.2078129804188533 1.2942974986241680 255 255 255
-0.3930352460664110 0.2103364402358929 1.2844295628845188 255 255 255
0.1151117810321094 0.3274587205062245 0.9733240081205246 255 255 255
0.2482934462821902 0.3593531566012214 0.8973573577434646 255 255 255
-0.3585779904282838 0.2181100422173960 1.2611694261499764 255 255 255
-0.4052286356424979 0.2081207793217645 1.2918873454418573 255 255 255
-0.2747658243102205 0.2380788294993597 1.2115262579723485 255 255 255
0.2559497177316459 0.3608706167880698 0.8854346255602827 255 255 255
0.2241764871787399 0.3542834409671509 0.9045436941028124 255 255 255
-0.2281063263774126 0.2497630716842698 1.1792224768368129 255 255 255
0.3396980210046401 0.3801323211003353 0.8281891013218150 255 255 255
-0.3483445515863792 0.2221995811628377 1.2519497108689635 255 255 255
0.2138434226874502 0.3528533099492464 0.9101519444695336 255 255 255
0.1415754496803725 0.3367696815519894 0.9544076858444086 255 255 255
0.2632436984669511 0.3643511437542823 0.8757950014660674 255 255 255
0.3100668486227853 0.3762665648126005 0.8471824506646390 255 255 255
0.3427475956683317 0.3832623831029061 0.8260783651087031 255 255 255
-0.2468502451502719 0.2471716895339111 1.1853576251313935 255 255 255
0.0514383254765498 0.3162170705981171 1.0015615318326936 255 255 255
0.1773893384958525 0.3470900685891070 0.9350155605567680 255 255 255
0.1814710678032192 0.3460588791037278 0.9162816499391280 255 255 255
0.2469456405666079 0.3629389629693467 0.8836443706716377 255 255 255
0.2151284224068384 0.3557103674412243 0.8977362221982261 255 255 255
0.3435688403547772 0.3861768778780696 0.8244987382303197 255 255 255
0.0212229513780535 0.3112380615443477 1.0146632488474641 255 255 255
0.0164863562300193 0.3113696477671160 1.0204624899716119 255 255 255
0.2655772092766160 0.3665966755061669 0.8574762030271899 255 255 255
0.3354391032761992 0.3830070310915967 0.8162426722338099 255 255 255
-0.2177228439459604 0.2536634380861980 1.1405952552179635 255 255 255
-0.3186630944489082 0.2336303229159125 1.2166066018394552 255 255 255
-0.0205626288970766 0.3027288810304896 1.0356476995334543 255 255 255
0.0442757786011905 0.3175123218371237 0.9928886348749795 255 255 255
0.2718932820514137 0.3702657694857585 0.8553259461041156 255 255 255
-0.3739888693218223 0.2219367429229715 1.2539816338236527 255 255 255
-0.3054775619568950 0.2383814418638774 1.2145727808318796 255 255 255
-0.3118653754487966 0.2376148763627306 1.2100258095136240 255 255 255
-0.3229411618360043 0.2342764188829753 1.2164770693827620 255 255 255
0.0229027842047813 0.3144150092109061 1.0068561377734024 255 255 255
0.1867548445145082 0.3529701430889922 0.9097128601821491 255 255 255
0.3194251439080817 0.3800064251080681 0.8102460253948145 255 255 255
-0.3719284615748002 0.2238370906688427 1.2502155180493517 255 255 255
0.2067156506630905 0.3570476876766389 0.8932426641612929 255 255 255
-0.4664272964080594 0.2640970763761072 1.1090805364676539 255 255 255
0.0425875864455687 0.3196985619363844 0.9872025422692081 255 255 255
0.1505172621021060 0.3456626425700176 0.9261217487796234 255 255 255
0.2569428729655652 0.3700169130971007 0.8582888337991705 255 255 255
0.2959472498360332 0.3760601478402585 0.8241675718418879 255 255 255
0.2057187187189422 0.3594070834602241 0.8839212979378277 255 255 255
0.2881789517077316 0.3800511190402789 0.8459323099987168 255 255 255
0.2939709164449624 0.3794954150023990 0.8244533302170964 255 255 255
0.2978482122587458 0.3785317907503760 0.8186110964012308 255 255 255
0.3136819604847858 0.3846236467410638 0.8177541123523806 255 255 255
-0.3009326380669926 0.2431567812590347 1.1908421452462665 255 255 255
0.1028935221394693 0.3364169616614241 0.9449144221715535 255 255 255
0.2869609742307375 0.3807371767205918 0.8332300401377228 255 255 255
-0.0418653791701837 0.3046064978376979 1.0315966028356094 255 255 255
0.0368516035609154 0.3211444862150579 0.9911992070126203 255 255 255
0.1739131219819647 0.3535260759521002 0.8976181287491425 255 255 255
0.2902509781644262 0.3814567738680328 0.8256555163244972 255 255 255
-0.1103764657839736 0.2888543875836973 1.0672354705982272 255 255 255
-0.0553333747246669 0.3018715449614362 1.0317494566010272 255 255 255
0.1244547421269679 0.3411791436068552 0.9089695694547490 255 255 255
0.1791175405771419 0.3564161272115545 0.8890188366338680 255 255 255
-0.2464691146889628 0.2580513707957860 1.1489347164563468 255 255 255
0.1215864303609848 0.3433731139066634 0.9235378861050183 255 255 255
-0.1489451422672614 0.2816923568044372 1.0898734771996290 255 255 255
0.3237203441566692 0.3908755830854940 0.8014187940933413 255 255 255
0.1049348735169975 0.3399952756488247 0.9316640928525848 255 255 255
-0.1724282953499419 0.2769021184003551 1.1004404805650374 255 255 255
-0.0457235712284341 0.3062130692049547 1.0229389783839196 255 255 255
0.2127622621458514 0.3655376809798927 0.8635692182175809 255 255 255
0.2858166415136658 0.3817362336271071 0.8148186106836128 255 255 255
-0.3039025893313614 0.2463623659053837 1.1768684925695645 255 255 255
-0.0028695775491396 0.3166884420616043 0.9973822460673283 255 255 255
-0.0177115282801292 0.3130328392565187 1.0036675668929647 255 255 255
0.0247413828450824 0.3239050704047877 0.9793113663622446 255 255 255
0.1034716611421915 0.3400785185181241 0.9262666640554285 255 255 255
0.1898524003083288 0.3614169760393455 0.8752565320974757 255 255 255
0.2379951596557208 0.3734233204883186 0.8467431739578093 255 255 255
-0.0945963403332764 0.2958991540719653 1.0462870761307439 255 255 255
0.1798529118011540 0.3594396228729400 0.8810847120377518 255 255 255
0.2621142336479458 0.3785197505952578 0.8302764471615891 255 255 255
-0.2363147185667849 0.2631928474278116 1.1330478879423609 255 255 255
-0.1953465916551957 0.2729279717166604 1.1082994434784594 255 255 255
-0.1888830313615326 0.2726825129978874 1.0982349566526146 255 255 255
-0.2470018777815870 0.2609913648280058 1.1380121492458279 255 255 255
-0.0119866260606898 0.3160200279412089 0.9953327939201051 255 255 255
0.0293466354094392 0.3256575597200406 0.9719836972915541 255 255 255
0.0857707761828621 0.3390278272403666 0.9386196167531784 255 255 255
0.1855190086138157 0.3619921184704464 0.8765407596187726 255 255 255
-0.0072236195960982 0.3129897688868593 0.9735370015388589 255 255 255
0.1693717929153697 0.3583960884582647 0.8837955235110329 255 255 255
0.2619808577309719 0.3796969217901047 0.8265224077746378 255 255 255
-0.1810719285819102 0.2777410670553935 1.0981068002848380 255 255 255
0.2004056520926962 0.3694677716559402 0.8805894897368161 255 255 255
-0.2937560283163982 0.2514161474257097 1.1613289933542283 255 255 255
-0.1583708755192754 0.2831728227404580 1.0799166462621899 255 255 255
0.2591992598073709 0.3805399775223410 0.8314694732133923 255 255 255
-0.1981069816685483 0.2746586022253954 1.1065377581426716 255 255 255
-0.1100392827156895 0.2950387275247994 1.0460629860192947 255 255 255
0.0347151528636616 0.3273810011746274 0.9603420136486669 255 255 255
-0.0237651963627865 0.3156660811962091 0.9990585370655065 255 255 255
-0.0865790619798181 0.3004377189115037 1.0339218261397791 255 255 255
0.2562560378325323 0.3807140243267657 0.8234064351480335 255 255 255
0.0710506854421702 0.3379667616304562 0.9365982944659788 255 255 255
0.1938935264031922 0.3681388056912369 0.8688460044002995 255 255 255
0.2476287632823180 0.3781988633836928 0.8248442735448496 255 255 255
0.2798316548061308 0.3862195148777738 0.8075217394729295 255 255 255
0.1406400357505362 0.3536792667947477 0.8941482500649354 255 255 255
-0.2207822121647105 0.2712393483115747 1.1131668836439204 255 255 255
-0.0049887097157750 0.3217107038120597 0.9834306395532169 255 255 255
-0.1966023449979151 0.2768521272185107 1.0957127155905022 255 255 255
0.1986400037535283 0.3683595675662552 0.8550934494590905 255 255 255
0.2899925038865527 0.3899011414570186 0.7995593280532534 255 255 255
-0.0532859301291957 0.3107564002644363 1.0080357685971251 255 255 255
0.0001736308107780 0.3227508511071822 0.9749979145357059 255 255 255
0.1314164876794788 0.3530503140464596 0.8941806659685376 255 255 255
-0.2390192378455733 0.2677404996527490 1.1181724919936658 255 255 255
0.0791130731268268 0.3418556430700441 0.9243325966065896 255 255 255
0.0665758718082898 0.3392507052487463 0.9363976180744551 255 255 255
-0.2202423739636306 0.2726718887469337 1.1066937591654593 255 255 255
-0.2257492003896004 0.2712764260623839 1.1103932590637307 255 255 255
-0.0980378363157497 0.3008516760222064 1.0311474713593629 255 255 255
-0.0476855801994338 0.3126025999944542 1.0011998987016977 255 255 255
0.1028618208187453 0.3469724433893262 0.9070088637729716 255 255 255
-0.0458176349969648 0.3130641824023863 0.9980847015859426 255 255 255
-0.1144760739013453 0.2975584315529494 1.0389933214156577 255 255 255
0.1358910310504307 0.3556901359355820 0.8852778325366888 255 255 255
-0.1751131111610231 0.2855700980967635 1.0779045601392259 255 255 255
-0.0072967362485326 0.3231688005684799 0.9729334895132506 255 255 255
0.0485266913683855 0.3376029156144007 0.9443337337641711 255 255 255
0.1017293876146965 0.3471847278214222 0.9001512968733945 255 255 255
0.0584571657343465 0.3387774601688944 0.9316806996577669 255 255 255
0.1374384758975928 0.3567177301771647 0.8810849059722035 255 255 255
0.1648847527492405 0.3633728467766022 0.8643302613247954 255 255 255
-0.0816705991509217 0.3072068665562995 1.0144409103365870 255 255 255
0.0980351281255034 0.3488779768202321 0.9050208467319463 255 255 255
-0.1942581873301625 0.2820838874519587 1.0838993871758160 255 255 255
-0.0601111975183266 0.3124995136760327 1.0002847442521325 255 255 255
-0.0268447714063171 0.3199459693030398 0.9809167962341308 255 255 255
-0.0141858903131400 0.3231451868781221 0.9696718102313628 255 255 255
0.0165258991325494 0.3307002316348502 0.9513992828104945 255 255 255
0.1365127971392290 0.3562644905778338 0.8723308032320354 255 255 255
0.1292265917109816 0.3562039065096076 0.8844099348427878 255 255 255
0.1742186180143683 0.3660986078881088 0.8546532263134683 255 255 255
-0.1533867709469670 0.2909813349625261 1.0576711720897780 255 255 255
-0.1148433304455256 0.3008231941662682 1.0356809521981045 255 255 255
0.1362959392868515 0.3577853861036404 0.8777879723525999 255 255 255
0.1444964410437670 0.3599379836909762 0.8718569602837771 255 255 255
-0.1491018322739386 0.2925357397988133 1.0539827455352349 255 255 255
0.0462057916330298 0.3373248499271764 0.9308386801953654 255 255 255
0.0811044383324759 0.3455360964537100 0.9101531814143193 255 255 255
0.1577662324646063 0.3646271449684804 0.8690584151592500 255 255 255
-0.3221985756097467 0.2493874053326852 1.1815566408648372 255 255 255
-0.2380166176231189 0.2718004717924916 1.1031520882419064 255 255 255
-0.2047287451488713 0.2802429761911565 1.0850352971042803 255 255 255
-0.0585380162051958 0.3145117176302357 0.9948726142398732 255 255 255
-0.1987753187853727 0.2824367023294494 1.0791398097175060 255 255 255
-0.0561151244478624 0.3150180555264481 0.9910375626625547 255 255 255
-0.0153545011527316 0.3245808618782620 0.9664769197502885 255 255 255
0.1728559777241783 0.3683004691778655 0.8520016310838940 255 255 255
0.1984291185339373 0.3746827612669605 0.8380409692769586 255 255 255
-0.1287869845995671 0.2984695169739027 1.0347889043831886 255 255 255
-0.0504888064782847 0.3176312441681386 0.9893013252883058 255 255 255
0.1273886150994024 0.3569873031498461 0.8751259564142964 255 255 255
-0.1327929723379446 0.2981819649777406 1.0382471198054222 255 255 255
-0.0941540592177019 0.3074703125512226 1.0103729094712679 255 255 255
-0.0624296427792768 0.3156033367049447 0.9969800770656172 255 255 255
0.0192926778820048 0.3358066250852048 0.9516899911081120 255 255 255
0.1831678827251899 0.3709850743375047 0.8425262088138399 255 255 255
-0.2284905455598540 0.2763479460753731 1.0931091772748527 255 255 255
-0.0159374496697120 0.3262136637880826 0.9613722917746268 255 255 255
0.0402167967078064 0.3388377213071774 0.9275786816358949 255 255 255
0.0878952437257183 0.3494299439976629 0.8953837179960207 255 255 255
0.1533880212546315 0.3663928148434374 0.8652299772424552 255 255 255
0.1913499093652078 0.3737566091948699 0.8375577588085963 255 255 255
-0.0906377344357008 0.3094916132717955 1.0081419564133896 255 255 255
-0.1100190716057781 0.3047990102329332 1.0167035922150531 255 255 255
-0.0463454817458882 0.3197198058302986 0.9780524494844416 255 255 255
0.1158720313901549 0.3568857466554993 0.8798950269956354 255 255 255
-0.0586412010271733 0.3167780045050268 0.9880138168017290 255 255 255
-0.0857226411534335 0.3093601365330936 0.9993345397412350 255 255 255
-0.0600623148807538 0.3156358746623189 0.9765754567205489 255 255 255
-0.0192928034207025 0.3272980279106816 0.9577258438099978 255 255 255
-0.3264831225092122 -0.3214788208035604 1.3844473668454764 255 255 255
0.4800760232532113 -0.0929319890956961 0.9512356628999896 255 255 255
-0.0068882005232496 0.0130582475906484 1.2556727992242642 255 255 255
-0.2839624679952841 -0.0448428999676538 1.4328853586756871 255 255 255
0.3638881928737021 0.1443143515806874 1.0841462318826880 255 255 255
-0.2439349010341232 0.0718573070097293 1.4351003295898153 255 255 255
-0.4442484417415307 0.0282647482071089 1.5371819173509087 255 255 255
0.0464088763132509 0.1463096175017231 1.2828665244812427 255 255 255
0.1600823527848263 0.2083470755283372 1.2325845506527742 255 255 255
-0.2751358940641067 0.1064772997079939 1.4644202764090943 255 255 255
-0.0935136053362782 0.1805399813616402 1.0927715976718395 255 255 255
0.2458283564597004 0.3182527400309441 1.0198840503167224 255 255 255
-0.2107042244721624 0.2113425107834930 1.2734495011425855 255 255 255
0.3729435629596445 0.3525263064959936 0.9398462248427304 255 255 255
0.1795282162700519 0.3098295336390545 1.0437243347618474 255 255 255
0.2341387377987099 0.3230724758691830 1.0017984759902174 255 255 255
0.1414473520293615 0.3061525435022165 1.0326890194038656 255 255 255
0.2141133245285722 0.3241898087503552 1.0019046410324020 255 255 255
0.2513489145147245 0.3447806090075189 1.0051208023127525 255 255 255
-0.2883868661029152 0.2113171045127474 1.2919481516711318 255 255 255
0.3914881811225381 0.3700771155567004 0.8903579982193905 255 255 255
-0.2515325591338513 0.2259606533736367 1.2632899853006130 255 255 255
0.0663471905016380 0.2986714523575671 1.0633192379040186 255 255 255
-0.2961649415239531 0.2152348345372586 1.2813779677987256 255 255 255
-0.3490199334849944 0.2048328992645096 1.3071225312271864 255 255 255
-0.2737936163402548 0.2247078774107640 1.2607379793254303 255 255 255
-0.2699472560298286 0.2235296509749070 1.2541405398135836 255 255 255
0.2492081376202688 0.3451572493718043 0.9368738613576296 255 255 255
-0.3360255128795586 0.2109964266539057 1.2918715933981701 255 255 255
0.0688656665969027 0.3033635231600815 1.0429764863289392 255 255 255
-0.0929959703908843 0.2529158142815988 1.0617141796661225 255 255 255
0.3873225926749591 0.3801696587467394 0.8475480127404040 255 255 255
-0.2321624694371183 0.2206961155144391 1.1307313289094205 255 255 255
0.1420453089816949 0.3276340170772825 1.0038214003643695 255 255 255
-0.3981036323657232 0.2019121428579167 1.3066751855273289 255 255 255
0.2006477265841404 0.3431819394087992 0.9327969700834959 255 255 255
-0.4260166842240141 0.2002713061990367 1.3215350418630685 255 255 255
0.0907151606583660 0.3221958650963268 0.9902273748593871 255 255 255
-0.0262272492232268 0.2991242043946314 1.0450297042290437 255 255 255
0.1639273831548262 0.3513087060882376 0.9069304926284572 255 255 255
-0.2004919211225555 0.2686860362910632 1.1281401688751753 255 255 255
-0.0767753412436010 0.2972916646814268 1.0499010858023468 255 255 255
0.2701424265994992 0.3832146491184740 0.8325057569583656 255 255 255
0.0771827468779058 0.3384621875832607 0.9320959550515173 255 255 255
-0.2231972999720027 0.2749709661788391 1.0961208258205759 255 255 255
0.1631314905351742 0.3648283046300440 0.8606914185917505 255 255 255
0.1880088923933076 0.1097122561075814 1.1604514447551821 255 255 255
-0.2672445738807596 0.0917726238373398 1.4582776394856030 255 255 255
-0.2442112715055424 0.0988992879249215 1.4359567799191115 255 255 255
-0.2443725370594724 0.1988562824357423 1.3039549261824133 255 255 255
-0.2005017895948178 0.2093315577652861 1.2690179496163287 255 255 255
0.4455686746384941 0.3658995157949168 0.8986504643268702 255 255 255
0.3138303492667305 0.3404557550798106 0.9572448054999541 255 255 255
-0.2178680578167498 0.2193951016166276 1.2759300633974089 255 255 255
-0.3053794819925456 0.2017790121929711 1.3231358354316907 255 255 255
0.1048413783293638 0.2983963800888838 1.0663064056893461 255 255 255
0.2030189101218070 0.3208235526151724 1.0097042723428369 255 255 255
0.3724976370966262 0.3623643835555215 0.9066810651356385 255 255 255
0.2825917607126378 0.3481274325355419 0.9301055071706767 255 255 255
0.1074722847439986 0.3109344543436112 1.0287596201632176 255 255 255
0.3238260064001381 0.3470158824438120 0.9037056642386715 255 255 255
0.3671728566252579 0.3714147669653114 0.8653863886448141 255 255 255
0.1215243574604465 0.3160741048859941 1.0138332592591377 255 255 255
-0.2518449350405856 0.2331754736544096 1.2391209690185132 255 255 255
0.0838391972006889 0.3128817863104971 1.0200724756162725 255 255 255
0.1225181882888311 0.3228917929709962 0.9904775499160730 255 255 255
-0.3931106053640416 0.2037552973424184 1.3019168455684671 255 255 255
0.2442357065205876 0.3521748178893742 0.9164986095471832 255 255 255
-0.3616929288507027 0.2119225231107214 1.2839942058497087 255 255 255
-0.3146667197007407 0.2233431697187576 1.2472671146908922 255 255 255
-0.2420367235235972 0.2419616953782198 1.2037800845026609 255 255 255
-0.2566743611512905 0.2381209870463032 1.2093232794966919 255 255 255
0.0045439175965964 0.3039044142603951 1.0407672687893341 255 255 255
0.0092053640258563 0.3047491194277283 1.0340168054334979 255 255 255
0.3061764014732473 0.3729149039337409 0.8496580214607155 255 255 255
-0.2437469408323647 0.2499793923440583 1.1776611774992158 255 255 255
-0.3641835014798058 0.2223701947437586 1.2470079099679907 255 255 255
0.3057875913756494 0.3785945849986039 0.8437741392729876 255 255 255
0.0142515933245120 0.3108023586485922 1.0007920707959497 255 255 255
0.1773061645271525 0.3527544614896856 0.9099080017534060 255 255 255
0.2787486630638085 0.3765745963574858 0.8348899702678576 255 255 255
-0.2988187654176073 0.2427386591009650 1.1860358592544351 255 255 255
0.2894515566653633 0.3815491274712959 0.8259876117636171 255 255 255
-0.0333053551116684 0.3082095382857886 1.0290943467767466 255 255 255
0.0646187310195394 0.3299627245262613 0.9589801621771468 255 255 255
0.1443704870136751 0.3497203681396384 0.9066199321342387 255 255 255
0.2652184560768056 0.3771922844319935 0.8240998139601459 255 255 255
0.1164136882722744 0.3453942362714280 0.9220151624096182 255 255 255
0.1554086674050126 0.3544695719381341 0.8812397587361556 255 255 255
-0.2369478842078214 0.2653129888842556 1.1293676631872698 255 255 255
-0.2569708605190910 0.2584402600607794 1.1287968867950573 255 255 255
-0.1392555378278062 0.2897681840058395 1.0663758750522678 255 255 255
0.1620722993414656 0.3589724147491489 0.8791069668089192 255 255 255
-0.1995144435495596 0.2780136949362297 1.1097180526203645 255 255 255
-0.1686106686686708 0.2850681792993046 1.0767841997389791 255 255 255
0.1155176548664620 0.3513190162093542 0.8993711652603862 255 255 255
-0.4981891894819492 -0.3585042590144414 1.4818593655364616 255 255 255
-0.5017526199770446 -0.3061204124805930 1.4929096750772111 255 255 255
-0.4246089365752832 -0.1337169940582868 1.4697472261634283 255 255 255
-0.3969104180678069 0.0814785863695087 1.5393158509229057 255 255 255
0.0016030022738924 0.2264127640634594 1.1059644567710265 255 255 255
-0.2106682340271973 0.2068009496828365 1.2789131150533790 255 255 255
-0.2100435270142427 0.2116460487806924 1.2723732415100031 255 255 255
-0.2202887946819976 0.2190239804409275 1.2777908442216890 255 255 255
-0.2287073687627765 0.2202014398029759 1.2804396398903413 255 255 255
0.2161458594327224 0.3266465493297730 1.0206126408402045 255 255 255
0.1355089752596017 0.3118554019470445 1.0676213883209229 255 255 255
-0.2362943477985500 0.2241498283460777 1.2601643283730048 255 255 255
0.1753860528377422 0.3229738196227538 1.0145339517968748 255 255 255
0.2035419852317641 0.3305632248394810 0.9881175074753710 255 255 255
0.1385409493729117 0.3152947727406654 1.0164652985128548 255 255 255
-0.3544759265202080 0.2022559546395577 1.3179392909917462 255 255 255
0.0528362778849214 0.2902501414156591 1.0313890449065433 255 255 255
-0.2455654424488909 0.2304185483498866 1.2678639975468187 255 255 255
-0.3906094647752987 0.1943275185469417 1.3313783788013822 255 255 255
-0.3231488985564344 0.2114596466209497 1.2841039751851717 255 255 255
-0.3046268583394820 0.2159083754974804 1.2671878597409201 255 255 255
0.2931262060067539 0.3558799819284335 0.9105370987301118 255 255 255
-0.2400219313945033 0.2345165665215889 1.2331275949977432 255 255 255
0.1070936630885084 0.3163085103290415 1.0107984046172285 255 255 255
0.3665379561186111 0.3758388097099472 0.8531382237371370 255 255 255
0.1425321949955176 0.3263271196713617 0.9829966626365838 255 255 255
0.3336033451867326 0.3740918314631743 0.8616520104119214 255 255 255
0.3381230278061338 0.3753181503827263 0.8532046216982772 255 255 255
-0.0631305648216802 0.2764074922834521 1.0478843167969458 255 255 255
-0.2251911360872576 0.2536426806951564 1.1684344141562555 255 255 255
-0.0447188196192325 0.3021861492306392 1.0391229583688819 255 255 255
0.0139414578235986 0.3158204502811817 0.9985953651096651 255 255 255
0.1389009171201887 0.3442435078182071 0.9190351996404240 255 255 255
-0.0034281248880461 0.3140477103922770 1.0071849320867674 255 255 255
-0.0461545579487863 0.3069074463584891 1.0328755811654968 255 255 255
0.2081928387153109 0.3649955213490779 0.8774327808972898 255 255 255
0.0240213017556434 0.3218099842537827 0.9718408537692829 255 255 255
-0.2187861511885378 0.2693923553090150 1.1185276871243186 255 255 255
0.1352546110760500 0.3510719326502301 0.9069691464801046 255 255 255
-0.2106936906388306 0.2710939842800526 1.1084931288611193 255 255 255
0.2389292201175266 0.3702336411368883 0.8020968604398835 255 255 255
0.1524704619408173 0.3582075815349599 0.8864446459468662 255 255 255
-0.1078483306217821 0.1867160307233569 1.0832862643111385 255 255 255
-0.2112735118075051 0.1789593412150516 1.1503267085936031 255 255 255
0.1961476705026550 0.3130799891710394 1.0366364836633575 255 255 255
-0.0679838231341403 0.2330920957565557 1.0525850423415406 255 255 255
-0.2645262110725775 0.2079751973160133 1.2995268009905003 255 255 255
0.1239834131620441 0.3100975156987662 1.0321837855214362 255 255 255
-0.2093379090399239 0.2287406475451101 1.1257575907010171 255 255 255
-0.0127832291268675 0.2891206303113725 1.0544044080653432 255 255 255
