ply
format ascii 1.0
element vertex 692
property double x
property double y
property double z
property uchar red
property uchar green
property uchar blue
end_header
1.0817985686864535 0.6535394933567691 3.5844029703367717 255 255 255
1.1929946433466441 0.6282194162866297 3.5862816805032054 255 255 255
1.1006291195411038 0.6504574142938733 3.5801366624879165 255 255 255
0.9278682038744517 0.6922984637199674 3.5683914844940787 255 255 255
1.1053562230543008 0.6500158191267946 3.5767969795026602 255 255 255
0.8855979100564806 0.7025185892378003 3.5618270890610813 255 255 255
0.9149358998893327 0.6934360837863514 3.5615872635759942 255 255 255
1.0906357848295514 0.6527428760191434 3.5689262859160635 255 255 255
0.8549802354088580 0.7112843945093097 3.5592347420370096 255 255 255
1.2142183674378018 0.6216542091117709 3.5647630448908671 255 255 255
0.8913162762594382 0.7031984980568495 3.5540202591030088 255 255 255
0.9039208613612217 0.7004745986324874 3.5559227891868446 255 255 255
0.8040960546533693 0.7263794069150808 3.5546736608194394 255 255 255
0.9584534045826629 0.6874813981425305 3.5585658019288786 255 255 255
0.8100674002196868 0.7228731508441690 3.5471083474385594 255 255 255
0.8714616503051733 0.7086698792935016 3.5508441873104442 255 255 255
0.8812965637582284 0.7068547694198291 3.5524284281468148 255 255 255
0.9412993243072805 0.6886724979426333 3.5469180263780800 255 255 255
1.0391260645679132 0.6677846151205298 3.5573888392768964 255 255 255
1.0138156427519753 0.6745286783357520 3.5540741542933532 255 255 255
1.0434961256557500 0.6664018488336207 3.5517387241359799 255 255 255
0.8497972519755361 0.7138281723489808 3.5450750275040974 255 255 255
1.1073252226282246 0.6454744497927836 3.5473581657167621 255 255 255
1.1805997757143558 0.6340218141916232 3.5575983403228619 255 255 255
0.8692678082550178 0.7057698665308028 3.5317564662995964 255 255 255
0.8631688216501221 0.7115176099691229 3.5419235636195374 255 255 255
0.8930807862653971 0.7053193610247366 3.5436395897425328 255 255 255
1.1484565385836092 0.6460652242181553 3.5679190183473182 255 255 255
0.8012151996658297 0.7267494833644434 3.5374510373473598 255 255 255
0.8807064052823819 0.7069627440931114 3.5400102479516562 255 255 255
0.9435746853745073 0.6917433257822552 3.5411769063103833 255 255 255
1.1289795289350870 0.6486455360337979 3.5493195686829395 255 255 255
0.8429432910442145 0.7163882788656473 3.5348600991918744 255 255 255
1.0929443466149777 0.6561870510068530 3.5480237819595288 255 255 255
1.1016967068730379 0.6541615441337978 3.5468574811058158 255 255 255
1.1563186598717650 0.6405660466140457 3.5480608718783344 255 255 255
1.2663306364193723 0.6158415630773622 3.5528261901073463 255 255 255
0.6899107271041185 0.7395352468918786 3.4880841494962631 255 255 255
0.7686968644806740 0.7358186445154118 3.5287088227174124 255 255 255
0.7794133955275271 0.7325028280645114 3.5297184982727217 255 255 255
0.8439016994856416 0.7186651087233056 3.5392693716345747 255 255 255
0.7952515836659089 0.7293145147170286 3.5296941770432539 255 255 255
1.0741765372008523 0.6613104185521053 3.5421411747957521 255 255 255
0.8694671919648140 0.7135596400619928 3.5347975704170640 255 255 255
1.0880076549715341 0.6441170064742465 3.4899995443334149 255 255 255
1.1878388435892617 0.6281870627606718 3.5229380042521683 255 255 255
1.1264284114926397 0.6501526453864415 3.5369328747784721 255 255 255
0.7518778488163314 0.7415636993930548 3.5172887185115371 255 255 255
1.2605236027811486 0.6199072747287424 3.5413766277368381 255 255 255
0.7918295612046151 -0.4184822555863761 3.7509497036413109 255 255 255
1.2737788059944464 0.6034347250474372 3.7405047095042008 255 255 255
1.1155585416172187 0.6334878704728588 3.6411888083421502 255 255 255
1.0400213397629727 0.6619455335246229 3.6383938489885281 255 255 255
1.2844233442837520 0.6002492706574358 3.6179523010691526 255 255 255
0.9642918839719385 0.6816929621379169 3.5490601253073191 255 255 255
0.9499170827761478 0.6913940560763550 3.5415254333699977 255 255 255
0.9626410651739690 0.6893446502463441 3.5412927133198053 255 255 255
-0.2707662933834882 0.2684033079006558 3.3021852865712944 255 255 255
1.0355217987912759 0.6594983140657273 3.6154820438655548 255 255 255
1.1273158804288599 0.6354714029661821 3.6136312893626439 255 255 255
1.0538262934500313 0.6454812263609870 3.5796826482575135 255 255 255
1.1675009878717759 0.6270339578155912 3.6092214851748849 255 255 255
1.2260261813928217 0.6164451781516647 3.6123028742519026 255 255 255
1.1157030384490234 0.6411805928161014 3.5998326627081525 255 255 255
0.9766239569449624 0.6788071530116326 3.5855690345016171 255 255 255
1.1420445163155009 0.6429663210840935 3.5701206850026956 255 255 255
-0.5831174037713804 0.2932557963645809 3.1377812707905557 255 255 255
1.1352787996514997 0.5366188601979891 4.1837184911177445 255 255 255
1.2205580386096901 0.5975075844563680 3.7348265354796695 255 255 255
1.2331933813083076 0.5941681229801667 3.7132743502430010 255 255 255
1.0538426578035960 0.6353489074269554 3.6725656915124389 255 255 255
1.2391728478099537 0.6000096771967254 3.6899277165237265 255 255 255
1.0375173364375740 0.6616234555809957 3.6402721851319200 255 255 255
-0.2326120059629052 0.1111313805681702 3.3041060247013121 255 255 255
1.0649263227628012 0.6400506725225981 3.6830641180698080 255 255 255
1.0392378842985543 0.6441473433473224 3.6662744098374773 255 255 255
0.9081902372255328 0.6678918158793543 3.6232126310363739 255 255 255
1.0269016016252586 0.6552288148000169 3.6525267432767805 255 255 255
0.5240017911596930 -0.0583467101700201 3.6646474523764718 255 255 255
-0.3537414900209583 0.7886244919576342 3.2330220355658383 255 255 255
1.1055777016797048 0.6335203520696782 3.6943880373887295 255 255 255
-0.2350794121565993 0.1138089585522464 3.3102901727282799 255 255 255
0.7017740369708036 -0.0175313098475876 3.7388395942527524 255 255 255
0.4742855963480075 -0.3176218492595915 3.5900164230566602 255 255 255
0.5372470235261417 -0.3479033118470483 3.6410679954587977 255 255 255
0.5638849509535984 -0.3553957485803281 3.6504917630734042 255 255 255
0.4805467241453378 -0.3110005758205130 3.5669905135596167 255 255 255
0.5440363745679697 -0.3510735942344354 3.6654024782989296 255 255 255
0.6472704294702680 -0.3683392164218660 3.6609853664999150 255 255 255
0.6721013720382345 -0.3801869787204240 3.6879584382183168 255 255 255
-0.3764621442958606 0.1346292060349499 3.2337225828575882 255 255 255
-0.3297873280596589 0.7193213183244664 3.2482577893546232 255 255 255
-0.2472909682826099 0.7187855783458653 3.3138071843786641 255 255 255
1.2190175170211797 0.5977246359100572 3.7337135608584369 255 255 255
-0.4515609370759153 0.8324609148691646 3.2235824803992159 255 255 255
-0.4763624506880442 0.8472242181553105 3.2124422790024596 255 255 255
1.1387944294367571 0.6369968969578945 3.6007064029756108 255 255 255
0.9870272710149877 0.6726583476901986 3.5972736886226286 255 255 255
1.0184875391474151 0.6661806364572769 3.5981916868071266 255 255 255
1.0950008393305595 0.6485296325259640 3.5849618930682112 255 255 255
0.8417443771038764 0.7093211925231619 3.5808667221292367 255 255 255
1.2376075653157130 0.6263704842204376 3.5873712614526028 255 255 255
1.1422009444764001 0.6427655741151952 3.5606662583975606 255 255 255
1.2926049790643113 0.6039529657858171 3.5476659535444952 255 255 255
1.0247052926579450 0.6689893421420354 3.5615898452739074 255 255 255
1.3114062353213569 0.6059044428194404 3.5560072869304946 255 255 255
0.9395954747594093 0.6907569817520951 3.5522588235155013 255 255 255
1.1613374938924395 0.6385655194075390 3.5431719846376843 255 255 255
0.9269852558498197 0.6935073546896966 3.5471757886422708 255 255 255
0.9965852573860019 0.6791265460864224 3.5442654445410255 255 255 255
1.1790789780197883 0.6386374619894077 3.5433861415181411 255 255 255
1.2317330959299397 0.6231415426439284 3.5245047392331514 255 255 255
0.8098245547761067 0.7267610465073098 3.5317483423728362 255 255 255
1.1464079332295753 0.6465925049527890 3.5303377625457912 255 255 255
1.1311221923946135 0.6488237367860386 3.5325065709008783 255 255 255
1.0945112155173078 0.6599051758565775 3.5327022756027731 255 255 255
1.2520104183537626 0.6164815078277996 3.5089011197228359 255 255 255
1.1022875582309837 0.6575066453847427 3.5290557945177170 255 255 255
1.1278851674130692 0.6494015272391849 3.5164973942241602 255 255 255
0.9182974795405272 0.7020767978806095 3.5238435165210404 255 255 255
1.0919539549678632 0.6616437214197362 3.5188672227230740 255 255 255
1.0459755854197894 0.6728939337300375 3.5188101317596825 255 255 255
1.1049750318215956 0.6605482991641303 3.5167676260184351 255 255 255
1.1649335524153486 0.6468510351882060 3.5169553886086078 255 255 255
1.2368787735673976 0.6333736175914257 3.5216741479802529 255 255 255
1.1703301607716412 0.6459865318023290 3.5144098113853488 255 255 255
0.8283739498755907 0.7238746522663551 3.5196332868869611 255 255 255
0.8509829362961217 0.7179941776226215 3.5168220856063179 255 255 255
0.9791797227714625 0.6878653345188894 3.5120904788233815 255 255 255
0.9121440646033889 0.7022911032142449 3.5051172117848068 255 255 255
1.2822923411130489 0.6218409579034621 3.4992691912699456 255 255 255
0.8838640211724638 0.7108275303106097 3.5100641384781355 255 255 255
1.1582156621335997 0.6470624693683789 3.4993745222531345 255 255 255
1.2972942105172223 0.6161345323644269 3.4981575338238073 255 255 255
0.7638708001005057 0.7398814743660456 3.5145761956107613 255 255 255
0.8537281889127026 0.7163063672508940 3.5020961812981959 255 255 255
1.1147921835462924 0.6568440516484095 3.4994015166245873 255 255 255
1.0942760028199814 0.6626997093175930 3.4967315469882152 255 255 255
1.2402951628502592 0.6337275481210298 3.5026781932236588 255 255 255
0.8416957697070853 0.7220759450816061 3.5061328829151286 255 255 255
0.8932353166175417 0.7112509062800996 3.5049043817717376 255 255 255
0.9141152508236772 0.7070353463015309 3.5010038683360278 255 255 255
1.2908138018525506 0.6215622125851610 3.4893035543435076 255 255 255
0.6582655192678288 0.7652827022473332 3.4984870528769392 255 255 255
1.1680028770848558 0.6466155501095567 3.4807362516622291 255 255 255
1.1994921207570144 0.6400616196054401 3.4816299939596718 255 255 255
0.8224243869870520 0.7264870917264723 3.4910274930513765 255 255 255
0.8866250451180520 0.7117080829783191 3.4886400875440984 255 255 255
0.8808666879060354 0.7152726970986496 3.4937659368107461 255 255 255
0.9632804994278494 0.6957210142557795 3.4909910851796013 255 255 255
1.1051576859929853 0.6640866861994326 3.4869164081440545 255 255 255
1.1502618067995201 0.6583425366898439 3.4926763895484569 255 255 255
1.1970141107240693 0.6475504345819054 3.4939966722146210 255 255 255
1.2688137638699644 0.6248679102530730 3.4825960441004398 255 255 255
0.7268558959932321 0.7498416135835466 3.4946025259929598 255 255 255
0.9164159295876484 0.7071321916746562 3.4893282693240479 255 255 255
1.2585024254085084 0.6290990920509572 3.4813200181211812 255 255 255
1.1831866437886518 0.6474115177753443 3.4865159747122050 255 255 255
0.9695439629152673 0.6942539001976726 3.4812480414729237 255 255 255
1.2135399386941828 0.6402360254343371 3.4812525421049259 255 255 255
0.9070829896448487 0.7087689995089441 3.4841591690783105 255 255 255
0.8570544445342811 0.7217795160313685 3.4881025107036230 255 255 255
0.9425347800702255 0.7066570208417651 3.4979108918908022 255 255 255
1.0780623564914151 0.6746240285321221 3.4938629642704768 255 255 255
1.1931187579639584 0.6430222037109541 3.4748879914966579 255 255 255
1.2180916453135922 0.6386124302909835 3.4774783390899699 255 255 255
0.7608711562927652 0.7431251966664565 3.4842623566504898 255 255 255
0.8098609018180376 0.7320467879034851 3.4839463601162137 255 255 255
1.0576944109245758 0.6748152280265138 3.4790225967475550 255 255 255
1.1340321470137837 0.6586442516475195 3.4775113803714959 255 255 255
0.9447342222370727 0.7025356513388790 3.4796695538551718 255 255 255
1.0284174053970503 0.6798981443193224 3.4694289988022433 255 255 255
1.2770611021454954 0.6274354792106998 3.4771971145771374 255 255 255
-0.4629086988665758 0.1788909815927051 3.1809647281294673 255 255 255
-0.5692600101962437 0.4861942646925241 3.1593084185196432 255 255 255
1.2654432633023163 0.5976788830716302 3.6422976589898894 255 255 255
1.0731612399676571 0.6246065009319555 3.6045113875040684 255 255 255
0.9966812526094735 0.6531154349443087 3.5834965345311005 255 255 255
0.9707866870019402 0.6753292139074505 3.5949187759088765 255 255 255
0.8332311962857126 0.7094941949096683 3.5856663868692493 255 255 255
0.5307392476566681 0.7171917962345393 3.3872353332061067 255 255 255
1.1527640896072029 0.6403200436275398 3.5171379920740833 255 255 255
0.7865977003023090 0.7326085031966763 3.5402067041763132 255 255 255
0.8025071997331494 0.7245450452954456 3.5317938813193344 255 255 255
0.4927527490188026 0.7065689769854786 3.2482120507122652 255 255 255
0.6826273753805898 0.7556035045936520 3.5129768360845688 255 255 255
0.6952544564397911 0.7571755365475923 3.5179724882331769 255 255 255
1.1480106327680808 0.6631808571403286 3.7537108475243386 255 255 255
1.1443196688537007 0.6410329465663782 3.6000071007883818 255 255 255
1.0078371838019891 0.6721632302008782 3.5600324315461620 255 255 255
1.2558385218759298 0.6185675835980788 3.5616328305115132 255 255 255
1.2140393313478484 0.6275867333082097 3.5402360580852132 255 255 255
1.0163054654477079 0.6756536220362399 3.5574199408643921 255 255 255
1.2154965167176215 0.6309162450730099 3.5553035692967114 255 255 255
1.1761676909757171 0.6378064179368828 3.5266835488745585 255 255 255
0.9238762201852957 0.6972786108491347 3.5367819898763813 255 255 255
1.2473405625560758 0.6241125752251051 3.5226109867562343 255 255 255
1.1249569967086899 0.6536523195804165 3.5261658448833515 255 255 255
0.8766532194526349 0.7115116359957447 3.5303766570172144 255 255 255
0.6851218235909755 0.7392918846553655 3.4866307816345454 255 255 255
0.8130891807843383 0.7261247047045707 3.5213145055877106 255 255 255
1.1290609494515707 0.6330107555472182 3.4508540132116110 255 255 255
0.8362940757207014 0.7206048799529867 3.5140813870108900 255 255 255
0.7543559499374837 0.7379366230533719 3.5079001861797465 255 255 255
0.7361070548280086 0.4977393587807337 3.7792859794200178 255 255 255
1.2174182566662708 0.5999967690354930 3.7564668104936523 255 255 255
0.9668154348111742 0.6808120344420683 3.5524332638031382 255 255 255
0.9492911906963393 0.6917761173039114 3.5406615423148509 255 255 255
1.1735224239154576 0.6454087095804439 3.5433447992125195 255 255 255
0.5404261485830970 0.0037729824187709 3.6732024709185076 255 255 255
0.5069021966094445 0.7387420401080238 3.6783494181232417 255 255 255
1.0044525117124081 0.6451790827992934 3.6483580778676199 255 255 255
0.0537670491064648 -0.0865989807565526 3.4250118165471424 255 255 255
0.3358702654721135 -0.1810874270312208 3.5789114485203974 255 255 255
-0.6160703213628618 0.1785046536638655 3.1177563914961155 255 255 255
-0.5584775059568505 0.1877086494283688 3.1382327351762349 255 255 255
-0.4952094686454498 0.4119462727941363 3.1873679183875843 255 255 255
-0.4529439856155173 0.4327507962604195 3.1936121189662918 255 255 255
-0.3859219957963752 0.6518352282269761 3.2191070962045947 255 255 255
-0.2919684566319947 0.7097890849233370 3.2950809395075753 255 255 255
-0.3140373010547001 0.7205068751471050 3.2721007459782867 255 255 255
0.4728211706138410 0.7267962300701925 3.6649398067648917 255 255 255
1.1962106301836855 0.6136164549052516 3.7314121646406591 255 255 255
1.1535870296664257 0.6283235017287936 3.6722431050297928 255 255 255
1.0466046737808909 0.6403515134345934 3.6051014496895988 255 255 255
1.1482986193803697 0.6338311803386389 3.6220138104761759 255 255 255
1.1994918978812112 0.6229982874590529 3.6255681394288182 255 255 255
1.0603136172891539 0.6556780701591904 3.6127997437256312 255 255 255
1.2048037855526381 0.6254325757279133 3.6009346210339288 255 255 255
0.9961938919429087 0.6723357865473174 3.6157672752897589 255 255 255
1.0370359005691441 0.6607950162593408 3.5972803116359202 255 255 255
-0.3462303828656870 0.8239476538032768 3.2460140750437319 255 255 255
1.0037961814354226 0.6705042213878940 3.5765696024877611 255 255 255
1.0838759861949185 0.6569875892894723 3.5581427807576524 255 255 255
0.9593317817081815 0.6798129981728533 3.5374893983178737 255 255 255
1.0779367174432721 0.6590898671854184 3.5290421986965157 255 255 255
1.1560760535310806 0.6453838395751106 3.5268937633029225 255 255 255
1.1221884245791962 0.6546944644798032 3.5321197946562393 255 255 255
0.9879955706796952 0.6830860572911348 3.5386618956786684 255 255 255
1.0291190921988971 0.6730035881390108 3.5453024905318102 255 255 255
1.2492716119519258 0.6248497491019052 3.5073622523705552 255 255 255
1.1025185109456785 0.6500378228190407 3.4968650660537861 255 255 255
1.1492737159882154 0.6499073443668237 3.5215417893456902 255 255 255
1.1921138429267870 0.6309291948292888 3.4941764079541784 255 255 255
1.2153514663611418 0.6348962422250892 3.5122653505987671 255 255 255
1.2639551340394846 0.6236670136783982 3.5034444338841979 255 255 255
0.8359645823355613 0.7160732428306331 3.5600343745142560 255 255 255
1.0796205120073807 0.6624333594252878 3.5137793676040161 255 255 255
1.1442038762764852 0.6478645059311008 3.5031383779824203 255 255 255
1.3270512958724652 0.6247227767134973 3.4814999926105372 255 255 255
1.3203750810008898 0.6101069725793451 3.4809676870296471 255 255 255
1.1863924605194995 0.6428932541563022 3.4990526172254022 255 255 255
1.2918700151419245 0.6143299556193718 3.4731682388427032 255 255 255
0.9613741134281781 0.6927206225894702 3.5149923105636329 255 255 255
1.1591577130712238 0.6539227173778528 3.5032155609983420 255 255 255
0.8154436262272355 0.7269003622637893 3.5251761998662516 255 255 255
0.8748400079404766 0.7130456059980870 3.5115459596974024 255 255 255
0.7383706374712666 0.7436288029091473 3.5261991103342893 255 255 255
1.2579587409485669 0.6329501752459734 3.4747745353459152 255 255 255
0.9280229195413483 0.7006098945715138 3.4961730553965538 255 255 255
1.0930255399844100 0.6669484498131375 3.4834648276234503 255 255 255
0.8051425312833089 0.7290974803141737 3.5064068851447345 255 255 255
0.8466547997191132 0.7181068590400406 3.5001769637735372 255 255 255
1.2363764720112087 0.6334569008367019 3.4609283025365229 255 255 255
1.1791345279569114 0.6535922241755676 3.4820555668189748 255 255 255
0.8139942643997440 0.7249714944686847 3.4991108964813833 255 255 255
1.0910367822954150 0.6624913981534215 3.4591448108315248 255 255 255
1.0313485276057506 0.6811420527017553 3.4754198675051811 255 255 255
1.1281454856856854 0.6631036236379160 3.4711729698711622 255 255 255
0.7707749080638315 0.7398390446891945 3.5019765465755768 255 255 255
1.0273174883524447 0.6828875340664471 3.4782245621451722 255 255 255
1.1343396771101126 0.6600268831641287 3.4669459858595104 255 255 255
1.1641297987301868 0.6559775747249361 3.4668955573151834 255 255 255
0.7564427501205255 0.7403601458814713 3.5128588633167439 255 255 255
0.8652624121851034 0.7184455432812591 3.4873604206880344 255 255 255
1.2868801632002089 0.6262961539361243 3.4425009317388060 255 255 255
0.7436972587308688 0.7440775726488518 3.4959486431534827 255 255 255
1.0374322515238745 0.6811328741157414 3.4624598851755692 255 255 255
1.1617684814203315 0.6615391303399267 3.4757689575943331 255 255 255
1.2530035331332385 0.6359556860100639 3.4501366875513781 255 255 255
1.2352992865231585 0.6357720911272935 3.4437884137939108 255 255 255
0.8578162406799805 0.7213726510327731 3.4888090758370822 255 255 255
1.0913195707217227 0.6680185315940417 3.4524457380417850 255 255 255
1.0344020965724425 0.6847761283764227 3.4708029363595614 255 255 255
1.1142161451607535 0.6672078514538455 3.4596235757993554 255 255 255
0.7729164852868742 0.7407136076186109 3.4910695225308501 255 255 255
0.7871388848234417 0.7333550210162425 3.4744024657948032 255 255 255
0.8664080144662023 0.7193271734752642 3.4794881504294040 255 255 255
1.1361526820378458 0.6624611836344272 3.4549607262638915 255 255 255
1.0035126870104989 0.6902472369757291 3.4650705154501509 255 255 255
0.6931116543333111 0.7566280673175463 3.4877331166518815 255 255 255
0.8209547504523940 0.7300242968632631 3.4759072013179235 255 255 255
0.8421671984573891 0.7267932249063165 3.4782522508861291 255 255 255
0.8468539673965552 0.7246147886666776 3.4729386192455536 255 255 255
1.0688939797319108 0.6772210958916745 3.4545117576053883 255 255 255
1.1402007890202697 0.6602830959020061 3.4436971499364972 255 255 255
0.8814777828494229 0.7183354647250733 3.4709279844218841 255 255 255
1.2896781224387723 0.6286476121339533 3.4276607623597073 255 255 255
0.8699314745905866 0.7205044233417262 3.4666605449004351 255 255 255
1.0639300317944276 0.6840505081066075 3.4624864877722423 255 255 255
0.7660237914165862 0.7436262112968928 3.4743659505016353 255 255 255
0.7886693639049369 0.7400373347521310 3.4780001433153984 255 255 255
0.8309317626431181 0.7283885649882791 3.4649166924850192 255 255 255
0.7442235043788479 0.7499758994281134 3.4771002621915699 255 255 255
0.7963537236521603 0.7374717738635752 3.4709430380026731 255 255 255
0.8109335045031045 0.7362025045029306 3.4734780901179363 255 255 255
0.8249785252676567 0.7347339476301036 3.4745101842309190 255 255 255
0.8829308817043895 0.7130187962577903 3.4425937604032413 255 255 255
0.9731682123285701 0.6998589933404391 3.4545051864934422 255 255 255
1.1785065945894218 0.6569641962015851 3.4375180585224570 255 255 255
1.2236510894049530 0.6448991945844362 3.4251375399927042 255 255 255
1.1887210053189534 0.6520106834617554 3.4281521892250240 255 255 255
1.0717760688331310 0.6771431864531721 3.4357356823477261 255 255 255
0.7526454672749168 0.7490778445667061 3.4704776532488495 255 255 255
0.7965987827584300 0.7451711297565247 3.4810065449629661 255 255 255
0.8302215224400449 0.7346110969834907 3.4670116660947912 255 255 255
0.6853321441019009 0.7661006968940800 3.4804482506752947 255 255 255
0.9569542367719777 0.7034626999691529 3.4454425803232844 255 255 255
0.8144190752754668 0.7344167451791606 3.4539930837363499 255 255 255
1.1477731831334168 0.6629482391292036 3.4235350962698874 255 255 255
1.2639295503870471 0.6381123534357869 3.4136583412964683 255 255 255
0.7911728383285777 0.7430481320322340 3.4580820398970644 255 255 255
0.7057636319190550 0.7586669138673052 3.4653870498624855 255 255 255
0.8356341638681464 0.7319369908230078 3.4565455714506896 255 255 255
0.9702344227769331 0.7037344739261187 3.4450505672077583 255 255 255
1.0793439951584674 0.6763404325008686 3.4247219560535029 255 255 255
0.9777820225820264 0.7003288723148646 3.4416074172297755 255 255 255
1.1065005263879826 0.6734554976073461 3.4310820512078166 255 255 255
1.1722180815787837 0.6597710721445083 3.4228645602186702 255 255 255
1.1825208683323325 0.6566625756980820 3.4211125010477446 255 255 255
0.8713696211639075 0.7239270827260746 3.4478130823072206 255 255 255
0.9890402470245618 0.6987870260467091 3.4377343112270751 255 255 255
1.2247388503986940 0.6475007324491742 3.4135059081643710 255 255 255
1.1791105730457616 0.6611409302316886 3.4268361236161127 255 255 255
0.8412600749142456 0.7328243781812986 3.4520831879092668 255 255 255
0.8454018003545158 0.7294624589815228 3.4466530008082330 255 255 255
0.8603949587330089 0.7283199140818830 3.4511328462563498 255 255 255
1.1251224446101702 0.6699473173241195 3.4253090348575626 255 255 255
1.2496966238728078 0.6420085798770643 3.4084836310143487 255 255 255
0.6905657588539214 0.7576900746794379 3.4407483126594656 255 255 255
0.3226727627017034 0.7735493472012021 3.2885069974228429 255 255 255
1.0575147938778819 0.6832228705281294 3.4219613121404251 255 255 255
1.2305137842214862 0.6547202686849687 3.4280584910067233 255 255 255
0.7368285426834085 0.7493158214146263 3.4383784365432888 255 255 255
0.7652737184108460 0.7477951904509510 3.4524936065458860 255 255 255
0.8092572639680142 0.7387308792701432 3.4500449969845093 255 255 255
0.8775583028893550 0.7253033094686376 3.4435366315369080 255 255 255
0.7938489345772339 -0.4424566218448653 3.7739695050027535 255 255 255
-0.4653853740688640 0.3836420097423777 3.1877686012163777 255 255 255
0.9276932955539436 0.6933995714055392 3.5697183694727670 255 255 255
0.9130972305873684 0.6863810884768959 3.4786908343141647 255 255 255
0.8381177825545407 0.7190569365869823 3.5351956660381774 255 255 255
1.2351777205672079 0.6195660696997081 3.4510704722505068 255 255 255
1.1156981283688872 0.6597785853131035 3.4924903134688456 255 255 255
0.8657240290725277 0.7162875232383588 3.5150232335360840 255 255 255
0.9738318571312625 0.6929547741430344 3.5054321800375661 255 255 255
0.7501114523514545 0.7197927611237187 3.4455454769281637 255 255 255
1.2928953818764910 0.6241534329226024 3.4558329135183499 255 255 255
1.0324502923708110 0.6844906253664824 3.4684168874148540 255 255 255
0.8358912332846273 0.7277721909560810 3.4700508752314363 255 255 255
0.8718389953323538 0.7205768347501831 3.4700949690154346 255 255 255
0.8825075928792785 0.7333053149584927 3.5141559481660494 255 255 255
1.0110098750645520 0.6904165491774670 3.4457451199644424 255 255 255
0.8436099205548153 0.7274244567795396 3.4645162462570624 255 255 255
0.7587683344123306 0.7467637625484613 3.4695839225888534 255 255 255
1.2767415943919502 0.6351888294643686 3.4161403620473720 255 255 255
1.1537601098104631 0.6347682235864092 3.6036535861077681 255 255 255
0.9308382609319779 0.6945690453549691 3.5758495943965869 255 255 255
0.8852115536650444 0.7020895487240839 3.5596560215500119 255 255 255
0.9366392423236150 0.6935882131018474 3.5383803520728421 255 255 255
0.9597782624757656 0.6919670094448591 3.5261636597806501 255 255 255
1.0647747744788418 0.6709594462228186 3.4952222178043399 255 255 255
0.7729956771023936 0.7369068392616107 3.5238041816442234 255 255 255
1.2333966220622017 0.6363638420835898 3.4650119833156054 255 255 255
0.8443659981514600 0.7248049049302363 3.4994112202453707 255 255 255
0.9121704200063192 0.6931140085823060 3.4337943017927159 255 255 255
0.6959354145054348 0.7575212284455972 3.4916097892055049 255 255 255
1.2241253082608523 0.6465517343700107 3.4436272141751516 255 255 255
-0.4790919949592972 0.3273289250323337 3.1817201399403090 255 255 255
1.1716797391484874 0.6359240235045078 3.5586641720694843 255 255 255
1.2053282038502289 0.6300486099626710 3.5567468927038135 255 255 255
1.2339240741780770 0.6266787207622713 3.5495682497829364 255 255 255
1.3165770695081562 0.6073109336457563 3.5366121536634978 255 255 255
0.7769966513465620 0.7149749230365190 3.5020483279909271 255 255 255
0.8114633308530159 0.7250475601674147 3.5181549650025943 255 255 255
0.9786180181342559 0.6909371762930832 3.4962827439858017 255 255 255
1.1807698260511614 0.6494876130940170 3.4664633673005056 255 255 255
-0.4493915839699957 0.4552826888856344 3.1959775610952943 255 255 255
0.5870572547251385 0.7243848951970602 3.6868781742819010 255 255 255
0.7302833730549789 0.7202167352859075 3.5301003497077872 255 255 255
0.8478903539855516 0.7102722076561392 3.5523513868881693 255 255 255
0.9038256751154492 0.7013453258584654 3.5517234031838001 255 255 255
1.1081483266712127 0.6397439293824725 3.6295709533418830 255 255 255
-0.4128439254531157 0.4338504701982571 3.2070680493141546 255 255 255
0.0455044427114499 0.2832561483616460 3.4318261651786361 255 255 255
0.4579737490539060 -0.3217312846087736 3.5976704677221960 255 255 255
0.4750874230119848 -0.3288237424633706 3.6122500991418747 255 255 255
0.6542713184805393 -0.3935259475773307 3.6841974886023081 255 255 255
0.5557436635678883 -0.3459818163623645 3.6394787404946243 255 255 255
-0.4896535211076564 0.0678944126394798 3.1577137294492310 255 255 255
0.3427671275184618 -0.1974878979189665 3.5513769183193880 255 255 255
-0.5207652666858937 0.1580581269974157 3.1563872865363289 255 255 255
-0.0063478279201598 0.0370697303389499 3.4084630811385379 255 255 255
-0.2108192404012413 0.1571567965985338 3.3170149521114443 255 255 255
-0.5857429460858802 0.3892030852568665 3.1385246063653209 255 255 255
-0.5844514011243348 0.3957801476819823 3.1411047467695061 255 255 255
-0.5699377088047144 0.4673355839393961 3.1529752973541498 255 255 255
1.0629778613243133 0.6136361951759746 3.5779821797465274 255 255 255
1.0867377149540260 0.6413886851332649 3.6635302557814953 255 255 255
1.0793322544846973 0.6454319778736810 3.6135101987791387 255 255 255
1.0724664241452118 0.6600771322959220 3.6606007273358117 255 255 255
1.0355051998353844 0.6608766384248455 3.6159108665832775 255 255 255
1.0778006947610379 0.6511019382765966 3.6044695335108656 255 255 255
1.1031914426422702 0.6475740744900733 3.5919292395935258 255 255 255
1.0605328842390520 0.6623751996643215 3.5866415659370858 255 255 255
1.0938961178173372 0.6549071005824203 3.5748839570005657 255 255 255
1.0772091882949439 0.6690224043916837 3.6161928865916266 255 255 255
0.9968387713554350 0.6762722515213735 3.5858016248019879 255 255 255
1.2466561379089285 0.5949001914463565 3.4437504584474254 255 255 255
1.1116782685181121 0.6512757872851047 3.5333600315200187 255 255 255
1.0464305761405228 0.6683443582507795 3.5467329138226091 255 255 255
-0.2998533386821122 0.8343329247632021 3.3824987176238186 255 255 255
1.0783921465625506 0.6585021764741819 3.5439147083078257 255 255 255
1.1846392122089355 0.6283864669506229 3.4778733398816541 255 255 255
-0.4934612589777356 0.8149835553663349 3.2044858748730700 255 255 255
1.1663537937862785 0.6457054070133772 3.4998499445305526 255 255 255
1.0402771222533964 0.6724108641865314 3.5232138557334096 255 255 255
0.8337800446180639 0.7182570528720877 3.5434124167819139 255 255 255
1.2210125530617368 0.6370138295869694 3.4710333438526604 255 255 255
1.1173826394974071 0.6579090007627144 3.4871358602416933 255 255 255
1.3037595729301970 0.6244364603480870 3.4633404246857893 255 255 255
1.3436634342914147 0.6153240525723795 3.4413025295235968 255 255 255
1.3455507388866295 0.6158248028749256 3.4438814170895284 255 255 255
1.1083889201027191 0.6651988131966107 3.4737416793141591 255 255 255
1.0112629379382980 0.6840699738169551 3.4885235247720203 255 255 255
0.7981368359989753 0.7365401026655620 3.5268854980417359 255 255 255
1.0970256373918232 0.6730510317313048 3.4681744346850678 255 255 255
1.1909090656643002 0.6481567387858220 3.4354340463615642 255 255 255
1.2579235992374009 0.6362846181798290 3.4315095511931872 255 255 255
0.7626037792755920 0.7414177867522556 3.5225131977548614 255 255 255
0.7415652856423973 0.7470669605524480 3.5222327065603540 255 255 255
0.9770468922948368 0.6966068984523304 3.4724172281931942 255 255 255
1.2331620143415307 0.6423312794613452 3.4251298509633727 255 255 255
1.2229025591568785 0.6446557634094532 3.4248208240075115 255 255 255
0.7997215216919003 0.7338944582430589 3.5015924947052923 255 255 255
1.0094755669758797 0.6902067039574185 3.4644645506557481 255 255 255
1.1751223494851502 0.6558154149698794 3.4343134967341911 255 255 255
0.9512759362413874 0.7041923387645284 3.4746973906464973 255 255 255
1.2751773079445172 0.6359228818349649 3.4160491913619069 255 255 255
0.9318872879536642 0.7081661596543594 3.4664995007868171 255 255 255
1.0595746545027112 0.6806462039329553 3.4465954017815648 255 255 255
1.1136069099670323 0.6678196830254945 3.4376022100014296 255 255 255
1.2983756633944878 0.6314414902536107 3.4052347283451780 255 255 255
1.0378723702293300 0.6864849669609665 3.4546347406783227 255 255 255
1.0057248408763542 0.6923872354277343 3.4491517556764748 255 255 255
1.0151290638053254 0.6919021107795942 3.4513352465922935 255 255 255
0.8369184317639249 0.7280541141899803 3.4819550632321210 255 255 255
1.1418749771062977 0.6654217472028208 3.4276927350433084 255 255 255
1.1177612815625650 0.6751163493225292 3.4453570631173420 255 255 255
0.8894840785582261 0.7215431312038403 3.4689911939474118 255 255 255
1.1427803755130199 0.6662082155331959 3.4150409911788131 255 255 255
0.7860631893626007 0.7390643220066111 3.4738907775096521 255 255 255
1.1076488413242345 0.6732028587106527 3.4141274485286033 255 255 255
1.1559638549899205 0.6614678035976347 3.4021003035372388 255 255 255
1.1672593738870205 0.6603737860053727 3.4008429730161964 255 255 255
1.1220474127823792 0.6719036713089821 3.4125473252662033 255 255 255
1.2754290188459265 0.6392196580402256 3.3794867175985530 255 255 255
1.0276311502749422 0.6927653800147855 3.4262629138003007 255 255 255
1.2203160330574292 0.6504200285047759 3.3839831580996531 255 255 255
1.2782263621386818 0.6382653087954839 3.3753495379444729 255 255 255
1.0745770107435106 0.6804006869091523 3.4078447335285205 255 255 255
1.1414018009409119 0.6709935715281432 3.4069476994393426 255 255 255
0.9703600706582129 0.7050515191070943 3.4303264114585126 255 255 255
1.1854357842353807 0.6609925990919407 3.3975756009719476 255 255 255
0.7374943966893710 0.7524470937271204 3.4671338870834632 255 255 255
0.9141058517118879 0.7238252777111711 3.4506646043775930 255 255 255
0.9759355974202180 0.7041559616562729 3.4275465537110854 255 255 255
1.0486552641065430 0.6857505514973372 3.4086528460860919 255 255 255
0.9551286150000209 0.7077038141927687 3.4270778790963163 255 255 255
0.9988377087698979 0.6998608190607420 3.4216266048302089 255 255 255
0.8915594569884258 0.7195161334124545 3.4308551919409283 255 255 255
1.2141308951964049 0.6569760767521444 3.3818894410403288 255 255 255
1.2734545299057345 0.6433106365369952 3.3708829891466507 255 255 255
1.2862533088220403 0.6407312276467181 3.3678944420910994 255 255 255
0.7546886923617606 0.7495077352791402 3.4552993734828021 255 255 255
0.8109172553810424 0.7399663325254302 3.4521717417705844 255 255 255
0.8502875985016658 0.7317392787875683 3.4441897613022974 255 255 255
1.0998053763640456 0.6820077431951646 3.4045897169230130 255 255 255
1.2192567932968643 0.6552770619344130 3.3776102147460421 255 255 255
0.7875423222815954 0.7422770298328700 3.4440479377459923 255 255 255
0.9637615135815381 0.7082868964514333 3.4159771641875807 255 255 255
1.0761620714692128 0.6849649495512082 3.3958435044722250 255 255 255
1.1616888349211081 0.6685196587177558 3.3859274908306958 255 255 255
0.8101940701594899 0.7397115855854484 3.4377698808868615 255 255 255
0.7742566846466445 0.7467612381754769 3.4462513700736750 255 255 255
0.8326043945068378 0.7339461729000245 3.4350339999130952 255 255 255
1.0008754283666867 0.6973378596733966 3.3977356094791773 255 255 255
1.0224330184238930 0.6959507665992071 3.4004061537424235 255 255 255
1.1189693228457429 0.6747364175275123 3.3847492633461513 255 255 255
0.7381855047614962 0.7556261584636204 3.4523627278429814 255 255 255
0.9374316774284068 0.7135554589183215 3.4146490116309138 255 255 255
1.0557249486609024 0.6910073195206401 3.3996445716093291 255 255 255
0.7260663504762022 0.7581864101916977 3.4501136316051486 255 255 255
0.8564687629219208 0.7319453776709963 3.4320600009619682 255 255 255
1.2072440046141253 0.6587492766327401 3.3651245971770152 255 255 255
0.5888275272057264 0.7250812037104772 3.2848325357058243 255 255 255
0.7922402927666106 0.7422853875748601 3.4321610955513684 255 255 255
1.0558097616617772 0.6904921264557942 3.3902066951047516 255 255 255
1.0749613046283741 0.6856135313598699 3.3867836833806280 255 255 255
1.1390168618952998 0.6738018719120689 3.3788842488550586 255 255 255
0.7591346598223829 0.7536767151212693 3.4479243309042147 255 255 255
0.9488148728345891 0.7076138276470481 3.3896429527054153 255 255 255
1.0863313809308153 0.6872922931167409 3.3876528190415627 255 255 255
1.1600522173915522 0.6710144612159752 3.3703754107766599 255 255 255
0.7642775879655765 0.7493149168579105 3.4302555611648273 255 255 255
0.9173826705872656 0.7128660608450694 3.3875512232796652 255 255 255
0.9521240113614766 0.7129698061327154 3.4043873147400063 255 255 255
1.2744304484234306 0.6480024316836790 3.3494872245698843 255 255 255
0.8490768128627124 0.7354772068575581 3.4188785808818167 255 255 255
1.0271958504219612 0.6964085709536505 3.3830940544802388 255 255 255
1.1232818965384013 0.6792792415905780 3.3748140702937519 255 255 255
1.1441822332507172 0.6720265801525542 3.3604721154663082 255 255 255
1.2084411854740296 0.6608396658299434 3.3565298390385578 255 255 255
0.5261880036382540 0.7326814043464485 3.2647153849146644 255 255 255
0.9680947617428046 0.7052678557036316 3.3832870692365304 255 255 255
1.0176386588808981 0.6999216503815759 3.3843468149080280 255 255 255
1.0980225769957457 0.6850869596129670 3.3718616904148888 255 255 255
1.2478337532694184 0.6527849920229229 3.3426800763572260 255 255 255
0.7307498997269875 0.7596845657331954 3.4319033071438980 255 255 255
0.8139551660272701 0.7431744710952941 3.4188619992920337 255 255 255
0.9592365402639764 0.7131097787007272 3.3932227238435395 255 255 255
0.9632383571519370 0.7095877573529785 3.3876713749120526 255 255 255
0.7499130055620782 0.7573902805562440 3.4292977165761300 255 255 255
0.8778816911294953 0.7300291351817148 3.4071236864838355 255 255 255
1.0369610178511266 0.6971895525113396 3.3776662589974364 255 255 255
1.0371884667494697 0.6936067241976609 3.3674019244129099 255 255 255
1.0786224590805205 0.6880519431397758 3.3620008126320045 255 255 255
1.1680350761754070 0.6696706100188035 3.3468450641029719 255 255 255
1.1928856127181575 0.6650033875799117 3.3444487530736495 255 255 255
0.8759072027777712 0.5895626281256696 4.3115468637092391 255 255 255
0.5582820477269212 0.7185624678546212 3.4076665767614216 255 255 255
0.8912000883893327 0.7095959681347956 3.5315723947271920 255 255 255
1.2303872175118471 0.6423857848153780 3.4331354343928524 255 255 255
0.8355900494177462 0.7322158909603296 3.4576185594484414 255 255 255
1.0054052948783010 0.6982065627582372 3.4063194505310435 255 255 255
0.9461142716123092 0.7114663872631395 3.4104776078956220 255 255 255
1.0669283622390573 0.6942493507945731 3.4044192817336594 255 255 255
1.2480761065868933 0.6531244639870479 3.3616113573271491 255 255 255
-0.4502519352100492 0.4459778733059069 3.2016993260803095 255 255 255
1.1007101670896517 0.6309917169297741 3.6225303076963087 255 255 255
1.0296464660294546 0.6681317737186845 3.5933971330363477 255 255 255
1.1792103173156043 0.6450681935707898 3.5036231651147602 255 255 255
1.1398179164454518 0.6550499035983197 3.5005510171466128 255 255 255
1.2858162295652562 0.6149266544597829 3.4352920566121696 255 255 255
0.9360148813751330 0.6966541870323564 3.5075795172985309 255 255 255
1.0978547318289102 0.6526895372583290 3.4426072379838217 255 255 255
1.1880814096808194 0.6477994436268162 3.4609733392760518 255 255 255
1.1057964762104575 0.6636320083612901 3.4694513117947281 255 255 255
0.7505182136631170 0.7350943242511940 3.5001624071968251 255 255 255
0.9370774457188560 0.7020055686241449 3.4835633858475319 255 255 255
1.0810990471935042 0.6743226744919291 3.4630614025404540 255 255 255
0.7715826732983473 0.7399602702171979 3.5035573248274474 255 255 255
1.2377411958511573 0.6422060480261464 3.4292499451872516 255 255 255
1.1311753777840750 0.6745317476167543 3.4229254767789712 255 255 255
1.0085636898840988 0.6939993078524225 3.4556668682291587 255 255 255
0.9458708010062509 0.7089630052396423 3.4491068153821800 255 255 255
1.2637145336621813 0.6529156220488943 3.4142179000532451 255 255 255
1.2198957279576632 0.6508057035132140 3.3911563711018573 255 255 255
0.8886619285157451 0.7195935042828232 3.4494397426038717 255 255 255
0.7508878484455401 0.7495442817614020 3.4704504004320569 255 255 255
0.8706954147942128 0.7234133454640599 3.4464018516908652 255 255 255
1.1804409228027737 0.6604759597376244 3.3927883820050795 255 255 255
0.8451461056400689 0.7291720776965889 3.4466689864571691 255 255 255
0.9579330841571689 0.7092498420095827 3.4307574403472394 255 255 255
0.9996111610312397 0.7006206746426074 3.4227970646878632 255 255 255
0.7588935634176259 0.7514609310922911 3.4606419825527439 255 255 255
0.7871579840900722 0.7406887182448649 3.4397759332241549 255 255 255
-0.4899676858330099 0.3656058585026049 3.1888488113078566 255 255 255
-0.5698467852022220 0.4095593887543328 3.1496385514634739 255 255 255
-0.5371487445383121 0.6648230092558052 3.1924664415894242 255 255 255
-0.3171402243996990 0.7084911510702474 3.2665063565273194 255 255 255
0.3067832513798372 0.7236355011651856 3.5677107863261170 255 255 255
1.0636715188656467 0.6699380408569615 3.6822809433548187 255 255 255
1.1529261940012248 0.6449183459339025 3.5813390037948238 255 255 255
0.5537579862256763 0.7174422023059961 3.4021123103143083 255 255 255
1.2412011862337380 0.6350354352460243 3.4454705123477254 255 255 255
0.8645554414202579 0.7193134735305726 3.5195598711448071 255 255 255
0.0155983429073734 0.8260972582863406 3.4259393414148640 255 255 255
0.6938922456580343 0.7551749386146867 3.5134475814017634 255 255 255
-0.3115170317756409 0.7373962952395567 3.2936663085196436 255 255 255
0.8493914835115746 0.7141015618894411 3.5333948593035913 255 255 255
-0.0627076862235326 0.1353739691483919 3.3873694755356003 255 255 255
-0.0500063726517126 0.1915601482997728 3.3905238666097617 255 255 255
0.3408562097201511 0.1644855798791061 3.5848554403450805 255 255 255
-0.4623347090901916 0.4886229629730836 3.1833353777728375 255 255 255
0.0425559342610633 -0.0921479416482569 3.4454831100594419 255 255 255
-0.6140059310023995 0.2480050843392487 3.1206682294397456 255 255 255
-0.6067210695308074 0.2952222264397714 3.1397194068448191 255 255 255
-0.4806589901710488 0.3164251850773412 3.1776336449852911 255 255 255
-0.5949522124883551 0.3653131906057113 3.1374856509695701 255 255 255
-0.4793027832600956 0.3563463582783640 3.1933666485195360 255 255 255
-0.5956127332645357 0.3941674312582303 3.1440043974340712 255 255 255
1.1132492028230558 0.6349441542876768 3.6455374896125790 255 255 255
1.1541310372409370 0.6345728204741468 3.6033653551432110 255 255 255
1.1695015856681081 0.6344990567292550 3.6006713347791788 255 255 255
1.0831566322295316 0.6506821025348124 3.5995851205247931 255 255 255
1.3227011010310008 0.6027349487754528 3.5304953601672651 255 255 255
1.1160575474301595 0.6462536120739948 3.5888357530813551 255 255 255
1.2434715037468820 0.6232237229019457 3.5178043952625941 255 255 255
1.0776381508150870 0.6648257793294317 3.5831208113858146 255 255 255
1.3394724398206677 0.6096978732648921 3.4714333995904099 255 255 255
1.1834401836030892 0.6444933448669303 3.5080049881297271 255 255 255
1.3304626381413129 0.6150654520166690 3.4578264229433557 255 255 255
1.3549594635013023 0.6109810273417580 3.4512647543920991 255 255 255
1.2616244334945605 0.6295406684294189 3.4679101974054163 255 255 255
1.0522537592285772 0.6638277960957648 3.4958183893374795 255 255 255
1.2613234795737185 0.6291759401034014 3.4573528578592629 255 255 255
0.9366988908258040 0.6935146144658066 3.5400647759993369 255 255 255
1.2713670386162903 0.6284741471264184 3.4505902818912944 255 255 255
0.8643348777087176 0.7171075001501102 3.5792534065017723 255 255 255
1.2781919796643422 0.6297981295133503 3.4420219807574313 255 255 255
1.0811017284499016 0.6656615394825529 3.4792860267793131 255 255 255
1.2538613375504610 0.6372379787293170 3.4514041465441210 255 255 255
1.3490244868875436 0.6190568407875396 3.4219268458914200 255 255 255
1.3078218503328500 0.6264592824683035 3.4284479953746825 255 255 255
0.9259124042239648 0.7030982034396729 3.5102966345040443 255 255 255
1.1830134337207880 0.6569726687789981 3.4215478906256465 255 255 255
1.3302563572766530 0.6275809711554885 3.3799068607490597 255 255 255
1.3352326766780038 0.6264152268452605 3.3765268082968305 255 255 255
1.3098916061666728 0.6314634749222563 3.3747386627704827 255 255 255
1.1229060926492309 0.6691775343953275 3.4222505036644009 255 255 255
1.1693477148330373 0.6640774094709574 3.4172102879104571 255 255 255
1.2615918349692521 0.6438243832966251 3.3804561608806409 255 255 255
1.2994268500781061 0.6405366413932114 3.3879932660269105 255 255 255
0.8571355640610498 0.7208388772347476 3.4767349634883118 255 255 255
0.8321982688291563 0.7263819698327474 3.4863261304234996 255 255 255
0.7712214587248560 0.7404861538179137 3.5018346964745390 255 255 255
1.0258451070047983 0.6898645779173336 3.4344164922480189 255 255 255
1.0967677260700555 0.6752585227376819 3.4161053265442121 255 255 255
1.1231289053228153 0.6723595698318867 3.4135082981992468 255 255 255
1.2047295528360564 0.6563096922873068 3.3897061075014037 255 255 255
1.3322443448726631 0.6394098895644902 3.3870641662911112 255 255 255
1.3110258839215589 0.6364382649963520 3.3640901466557267 255 255 255
1.1488219356645288 0.6667333215370128 3.3948952654896658 255 255 255
0.7091823521772991 0.7545216846666261 3.5116132908324467 255 255 255
1.1858885250297462 0.6599737511658113 3.3876414931083474 255 255 255
1.2536163168098540 0.6464303069373520 3.3678024000907421 255 255 255
0.7113266424147362 0.7538896135089672 3.5048879636801757 255 255 255
0.7882219027483188 0.7392153996188462 3.4855791397612137 255 255 255
1.1687902556003280 0.6657179651062179 3.3860261230785511 255 255 255
1.2290645764828412 0.6533262126924164 3.3671931971714315 255 255 255
1.2700610352835184 0.6422641608040349 3.3485761655250812 255 255 255
0.9847310969955210 0.7020977249867322 3.4201459878534681 255 255 255
1.1067802783909144 0.6777560738219535 3.3920959373068911 255 255 255
-0.3050551136257960 0.8089227013426878 3.2661890093327433 255 255 255
1.1183491240180388 0.6741651027839737 3.3835305289958200 255 255 255
1.2073561127222092 0.6590694521675289 3.3654815978247257 255 255 255
1.2460350443511174 0.6522429282967650 3.3590842942646759 255 255 255
0.8354974056068194 0.7316913788837835 3.4566708018707573 255 255 255
1.0741492669331336 0.6902073174817502 3.4056332718419213 255 255 255
1.1484794833682059 0.6715556129976292 3.3729453578309290 255 255 255
0.7590880159482403 0.7473942616873597 3.4688374691114774 255 255 255
1.0941337681013366 0.6816267998508874 3.3830449232821849 255 255 255
1.1971006513529687 0.6642648818700252 3.3628156369103408 255 255 255
1.3049768788147276 0.6425308744040876 3.3338566839727264 255 255 255
0.6129023622675280 0.7150479126391671 3.2944552609785376 255 255 255
0.7626879077889726 0.7468872730564904 3.4492339766804747 255 255 255
0.9260839062433988 0.7157932141314198 3.4115914584992595 255 255 255
0.7508987057373275 0.7547311170233897 3.4646471014763165 255 255 255
1.2569331038692013 0.6510791893475378 3.3211613613860322 255 255 255
1.2831451346511642 0.6483887826851351 3.3191035470510002 255 255 255
0.8870754820922855 0.7376553841593676 3.4506967119542935 255 255 255
0.9709866633173014 0.7068642917347860 3.3875132814159912 255 255 255
0.8316043709099148 0.7359285960050563 3.4244302003033624 255 255 255
1.0590378430627219 0.6927481982519073 3.3732635848398473 255 255 255
1.2037445836910763 0.6647368676479530 3.3313539191271389 255 255 255
1.2374504993565552 0.6585967771852594 3.3248975101456324 255 255 255
1.2558367514861573 0.6535157732944015 3.3125181797619518 255 255 255
0.2933106074315219 0.9602394325950172 2.7665186473639665 255 255 255
1.1376863532660195 0.6763705411460919 3.3332106608937977 255 255 255
0.7459062959337004 0.7577950918727119 3.4455386831730195 255 255 255
0.1554032842202187 0.8485323297283669 3.5156446384530113 255 255 255
1.1185925727371604 0.6840153658396924 3.3448649538638584 255 255 255
0.9703773196027115 0.7112029863053237 3.3779646700971639 255 255 255
1.0092139245697922 0.7030917863136601 3.3662700278657738 255 255 255
1.0379608011063084 0.6984937346224847 3.3570322345716477 255 255 255
0.9841347190241123 0.7063353021342849 3.3641723969168140 255 255 255
0.8458577914601122 0.7364164574481018 3.4057941684580726 255 255 255
0.9892268236283783 0.7104615242654617 3.3794634482289752 255 255 255
0.8759902129820176 0.7308035735698759 3.3953129754311533 255 255 255
0.8517193208115916 0.7356329514770437 3.4021667291132403 255 255 255
0.8024857431098802 0.7472265717470972 3.4184799318675090 255 255 255
