ply
format ascii 1.0
element vertex 685
property double x
property double y
property double z
property uchar red
property uchar green
property uchar blue
end_header
0.2446866503039753 -0.2614739545458817 0.9224504008623926 255 255 255
0.1527761068975222 -0.2629492265170713 0.9729541994254154 255 255 255
0.1536948499105151 -0.2569308838643225 0.9762330448712859 255 255 255
-0.3586194916779046 -0.3407535187004829 1.2556784705125423 255 255 255
-0.2001970865921012 -0.3112581411665230 1.1637719278187832 255 255 255
-0.4592510761689353 -0.3523366721544077 1.2991292543018838 255 255 255
-0.1788622962784747 -0.3020012362178164 1.1432487812574794 255 255 255
0.1562960911104616 -0.2430167135700763 0.9670551244796952 255 255 255
0.0622657295732649 -0.2566094279240866 1.0287160233471422 255 255 255
-0.3026298098271880 -0.3062858504895740 1.2241816354301474 255 255 255
0.3358224026546281 -0.2037403385206618 0.8840117122593085 255 255 255
-0.2566558688689806 -0.3004231100945667 1.2013039109000125 255 255 255
-0.2078545675604602 -0.2874232795412226 1.1775884766436810 255 255 255
-0.4590864170327877 -0.3259110084470059 1.3117242937336329 255 255 255
-0.2568391209747096 -0.2926276386885427 1.2036347070583266 255 255 255
-0.3034013432173674 -0.2920080452620595 1.2198330968531952 255 255 255
0.2437345905919657 -0.2033304386412749 0.9395492703089392 255 255 255
0.0620087073531764 -0.2301660149177597 1.0359908700867968 255 255 255
-0.2083191670813709 -0.2748470298356784 1.1876720492595316 255 255 255
0.1547683400361848 -0.2155548326893669 0.9939739655372186 255 255 255
-0.0737487716493304 -0.2495143328331062 1.1122977854838614 255 255 255
0.3373958091912259 -0.1799595024865439 0.8964954168772210 255 255 255
-0.2571405116603707 -0.2669781445873478 1.2094337363580792 255 255 255
0.1540998348102600 -0.2012026772458650 0.9978522277569275 255 255 255
-0.0744908152199248 -0.2334810253962446 1.1141145067866112 255 255 255
-0.2098268149986438 -0.2352814652827350 1.1932465975885260 255 255 255
0.1518476132661393 -0.1734153879585156 1.0033295114963439 255 255 255
-0.1200131431569496 -0.2075550002971616 1.1485600214261495 255 255 255
0.1533241738664870 -0.1649118979137294 1.0041555078895801 255 255 255
0.1075144658395804 -0.1708256434013555 1.0282240919641019 255 255 255
0.2849188952370714 -0.1402659821305468 0.9269158904003417 255 255 255
0.2877870198063022 -0.1384360178368931 0.9324396134432824 255 255 255
-0.3028907211834677 -0.2256730498305703 1.2485477566751484 255 255 255
0.1071074708176702 -0.1609990666061255 1.0308117580541731 255 255 255
-0.4599629638872917 -0.2379583615363259 1.3361273844669945 255 255 255
0.1050396717632860 -0.1480824351724136 1.0333652982193779 255 255 255
0.3661419905400940 -0.1032093829373306 0.8961889615402674 255 255 255
-0.4575376950677832 -0.2248506831129712 1.3382711425638725 255 255 255
-0.4733386432708500 -0.2012345455908253 1.3290896937173358 255 255 255
-0.0846194479869773 -0.1399560953616987 1.1087310777261372 255 255 255
-0.1307286193821069 -0.1138371705544376 1.1611237124514058 255 255 255
-0.2308172449125294 -0.0941463281448164 1.2234131167479423 255 255 255
-0.0245470078781072 -0.0468645566504424 1.1190890103310736 255 255 255
-0.4639646711023579 -0.1039924258322835 1.3739244171784497 255 255 255
-0.3765086537067361 -0.0842104177401704 1.3072919367269213 255 255 255
-0.1499331791534613 -0.0333534249883325 1.2117009460730510 255 255 255
0.3588923416585050 0.0463219099023109 0.9257877567458133 255 255 255
-0.3772449265747442 -0.0245678998779684 1.3289327443929810 255 255 255
-0.3954543997313995 -0.0238755275798572 1.3412559296915010 255 255 255
-0.1900073630221427 0.0122564017296780 1.2302818542984897 255 255 255
-0.2123828892083139 0.0133374430914945 1.2446646965986687 255 255 255
0.5398540809116898 0.1342278477943357 1.2198239224519156 255 255 255
0.1525227021138624 0.0774691162558154 1.0652631360048481 255 255 255
0.1504883773342565 0.0822382261535033 1.0544827843938318 255 255 255
-0.1965939770845355 0.0504651301588936 1.2443937566969261 255 255 255
0.1501244388250900 0.0939054764515599 1.0567577684133660 255 255 255
0.3328369202408643 0.1245520382553500 0.9798697097763016 255 255 255
-0.2561204487777937 0.0579201079026943 1.3134628681856082 255 255 255
-0.2604334656335676 0.0590729210212271 1.3041529030732786 255 255 255
-0.5551200808457238 0.0567009745178329 1.6211639860741420 255 255 255
0.3295286581648136 0.1562245536871063 0.9945742699117111 255 255 255
-0.2367435067056267 0.0931811573472595 1.3074536426287140 255 255 255
0.1318953214978187 0.1370394026718227 1.1031159402608353 255 255 255
-0.2566856115196395 0.0915119206247001 1.3131054565466147 255 255 255
0.0717967747276993 0.1377082135660821 1.1291566482318522 255 255 255
0.0898501716722127 0.1583515306176349 1.1286167291957661 255 255 255
0.0561052032552425 0.1575058218120011 1.1481183056172881 255 255 255
0.0790555914321720 0.1618855081798234 1.1354652331239850 255 255 255
0.1497784779226650 0.1689160558454628 1.0806972574150944 255 255 255
0.6120441329756243 0.2438634346502955 1.0046664986134886 255 255 255
-0.4690394810988261 0.1008271356111174 1.4346434692371171 255 255 255
0.0836044017026403 0.1664122306832549 1.1349836328123359 255 255 255
0.3349527974992164 0.2055963577766702 1.0036317154213235 255 255 255
-0.0426387153269328 0.1723853808313970 1.1953252506296783 255 255 255
0.0019392026193378 0.1864200207318588 1.1702260414971233 255 255 255
-0.4237784392381219 0.1328639451071588 1.3543798612174793 255 255 255
-0.3870455212617998 0.1385880615834658 1.3273581582857119 255 255 255
-0.4061603384631156 0.1368078797762493 1.3338546727994292 255 255 255
-0.4630001186049326 0.1318385209382293 1.3470424896395130 255 255 255
-0.3809070412849074 0.1456305809126530 1.3013573488066879 255 255 255
0.5422156865089391 0.2738848313911628 0.9005104240961472 255 255 255
0.1350639569466913 0.2265498403993935 1.0439944382950053 255 255 255
-0.1819951049154485 0.1946325689423682 1.1364197476104039 255 255 255
-0.4332597099660758 0.1665724490240754 1.2528710534947027 255 255 255
-0.1787030245899683 0.1984033040589845 1.1361462469332118 255 255 255
-0.4308858617237848 0.1711087129432076 1.2583793140664301 255 255 255
-0.4239826724200004 0.1721715902639311 1.2411363471853551 255 255 255
-0.3906950778269551 0.1780935233240442 1.2223548491603413 255 255 255
-0.3085199168157811 0.1903523788038495 1.1904155894676602 255 255 255
-0.1823012781796471 0.2069288439302328 1.1372904000091726 255 255 255
-0.3048283860671912 0.1902605421021506 1.1719178316997541 255 255 255
-0.2375647470892811 0.2008240526164282 1.1563557405696072 255 255 255
-0.3394204411652495 0.1877698290695538 1.1950816731375435 255 255 255
-0.3248887824405262 0.1896309776266980 1.1901818633619889 255 255 255
-0.3210286369620581 0.1902761791200954 1.1890558644101161 255 255 255
-0.3356467567322037 0.1873276480862702 1.1869693452935905 255 255 255
-0.3288294039270228 0.1911226868807143 1.1943397146275276 255 255 255
-0.2016278730404806 0.2070790525490696 1.1349449011932000 255 255 255
-0.2153412485186359 0.2061648560681120 1.1447755231612486 255 255 255
-0.4387922940146651 0.1773918970978632 1.2326486584943979 255 255 255
-0.1865025520687444 0.2100763020291110 1.1242635777665066 255 255 255
-0.3580188298343465 0.1889898892149340 1.1995199051051557 255 255 255
-0.1924488362377152 0.2092917320691838 1.1255830001469498 255 255 255
-0.2361797409410584 0.2040684942413871 1.1479560511211071 255 255 255
-0.4460930795724850 0.1762347493912606 1.2259956008939836 255 255 255
-0.2172729183795221 0.2065992744013285 1.1331553755535761 255 255 255
-0.2061836518375282 0.2083121846171343 1.1284022587915317 255 255 255
-0.4016706035771114 0.1823518481322415 1.2063264715971620 255 255 255
-0.4430487589764792 0.1787550737647604 1.2268119308101453 255 255 255
-0.4404393394782555 0.1782068570046840 1.2222499632051420 255 255 255
-0.1851220998004113 0.1917916490000455 1.0100483611750732 255 255 255
-0.3259486172031548 0.1946507060801351 1.1768582400594723 255 255 255
-0.2969805690558927 0.1976537145767798 1.1642776676513815 255 255 255
-0.3991376367529472 0.1851022991077431 1.2056307953530279 255 255 255
0.1699440879533149 0.2556142055934956 0.9479133686357244 255 255 255
-0.4475385344456645 0.1816100059494691 1.2283792679156784 255 255 255
-0.4254395724951634 0.1828836534556132 1.2119757020101689 255 255 255
-0.2894168361568443 0.2008009517444109 1.1542378246721121 255 255 255
-0.3990771726979772 0.1878973286917790 1.1992912609205848 255 255 255
-0.2935136753352574 0.2010566011045238 1.1485589457151479 255 255 255
-0.3654343120402397 0.1929245784995084 1.1798197200289551 255 255 255
-0.3244465729283523 0.1985325848185640 1.1588596928532189 255 255 255
-0.4470787154936569 0.1825155193542739 1.2097984932319295 255 255 255
-0.2278532083526630 0.2113658518223271 1.1182944472246785 255 255 255
-0.2010341125767399 0.2156200655942411 1.1056402593399923 255 255 255
-0.3050411424886326 0.2020430183308024 1.1493872120705362 255 255 255
-0.3183057334453454 0.2007829146051083 1.1544513177679505 255 255 255
-0.4415799058640947 0.1862736291659726 1.2091853228940277 255 255 255
-0.1945118355872348 0.2179116493292579 1.0964809356381719 255 255 255
-0.2318739972864070 0.2131428217248139 1.1107640958918230 255 255 255
-0.4164903937684574 0.1910008960113971 1.1920889510755410 255 255 255
-0.4320352457521786 0.1878583597849584 1.1923972476548341 255 255 255
-0.3906504123240111 0.1933098979246606 1.1735273032415137 255 255 255
-0.2134916231015938 0.2175524309150161 1.0984776422706837 255 255 255
0.2573665082999343 0.2776476293128234 0.8997509689919481 255 255 255
0.1617094716654854 0.2675268603941321 0.9464839856296159 255 255 255
-0.3606598857545547 0.1978981701914204 1.1551007693168174 255 255 255
-0.3095721201525927 0.2053309406133583 1.1346470300505369 255 255 255
0.1397430400428954 0.2648659150165074 0.9477312543669711 255 255 255
0.1601771651598543 0.2675200590670430 0.9390853376876553 255 255 255
0.2069965051174076 0.2739930218709237 0.9212334923286853 255 255 255
-0.4054964584117917 0.1948719888031429 1.1780848297108957 255 255 255
0.2032413433462708 0.2746265477442371 0.9233196364998868 255 255 255
0.1357331491760485 0.2654207541673532 0.9492326890165712 255 255 255
-0.2107744259708086 0.2201423318712377 1.0881805193324556 255 255 255
0.1404022735900234 0.2664396639251239 0.9443744799494898 255 255 255
-0.4559468697635791 0.1891190523222768 1.1882572660683834 255 255 255
-0.4062195637902917 0.1963157145334247 1.1713344542899833 255 255 255
-0.3058052313795332 0.2093922304700142 1.1281175040205915 255 255 255
0.1993825207387170 0.2744388931918125 0.9124500790145875 255 255 255
0.0789266136210820 0.2595087643383580 0.9606112549675350 255 255 255
0.1222564429678403 0.2656156372131813 0.9467055776684550 255 255 255
-0.4733959796223204 0.1877581897285805 1.1913978821621292 255 255 255
-0.2081774647236394 0.2234476979119067 1.0815347323471438 255 255 255
-0.3330375560866847 0.2084776645541249 1.1363975949163336 255 255 255
0.2107887020515919 0.2784419881705067 0.9079847837952633 255 255 255
-0.3897055898080501 0.2004260342134097 1.1552466845228420 255 255 255
-0.3587181500210623 0.2040648610215623 1.1406921794998190 255 255 255
-0.3297576830676706 0.2060652478461160 1.1220396200823388 255 255 255
-0.2067755387633898 0.2249088381671585 1.0785978945738792 255 255 255
0.2659124695294608 0.2858856662423088 0.8797551522934421 255 255 255
-0.2781660883503627 0.2150290456316171 1.1026643979373847 255 255 255
0.2039058136585536 0.2785607165494435 0.9047133670900038 255 255 255
0.2190427157576238 0.2797511236482699 0.8953202663007236 255 255 255
-0.2164496276802657 0.2236847173819710 1.0788068546118386 255 255 255
-0.2465178948401157 0.2208486231992985 1.0918086461985483 255 255 255
0.0918162527702977 0.2647995377569453 0.9467037269837779 255 255 255
0.3090042023762445 0.2937103968924495 0.8592989178585198 255 255 255
-0.4128397052546764 0.1987553704411416 1.1547211040039178 255 255 255
-0.3475767929132672 0.2070465807992483 1.1274143253537279 255 255 255
0.3402678855670391 0.3048024771368829 0.8736156369945807 255 255 255
0.0739562342380946 0.2635753942850121 0.9517131468708664 255 255 255
-0.3089809547065170 0.2135917026406173 1.1087722720912740 255 255 255
0.1808572894599205 0.2777063790205894 0.9069369667467715 255 255 255
-0.1995604283655033 0.2290913523892024 1.0591780396778989 255 255 255
-0.3409876435267507 0.2109003355234540 1.1185107523859639 255 255 255
-0.4860300686410576 0.1962973410738483 1.1917023816860033 255 255 255
-0.1619438124335373 0.2260648882640091 1.0019196469795109 255 255 255
0.3706053628868062 0.3050893341838341 0.8269578263535529 255 255 255
-0.2016963600558155 0.2311666850749780 1.0550890175108787 255 255 255
0.1476108411998425 0.2771172299040594 0.9113074014393039 255 255 255
0.1701839539538295 0.2791444016452975 0.8999788162721538 255 255 255
0.2369095750076706 0.2884756154690531 0.8709793421643468 255 255 255
-0.4576622910411525 0.1976223058128665 1.1546513359359754 255 255 255
-0.3850719260358721 0.2073593444447490 1.1249059949149967 255 255 255
0.1818937519204367 0.2828652500573958 0.8901317957706696 255 255 255
0.0640493550674872 0.2677584087107823 0.9392100662576190 255 255 255
-0.3133404646214326 0.2183442737940564 1.0921725880370303 255 255 255
-0.3048277139111388 0.2192011878496347 1.0899331561583390 255 255 255
0.0173389104585340 0.2616587165366990 0.9571315877203972 255 255 255
0.2710986595062703 0.2944835696907644 0.8498491607114098 255 255 255
0.0200034604408366 0.2618398964695459 0.9533509911525950 255 255 255
-0.2040842287853555 0.2333914368848357 1.0495310135155529 255 255 255
0.0981991112631087 0.2731979169714884 0.9229250870315413 255 255 255
0.1830740008615113 0.2835314411819299 0.8846349862984813 255 255 255
0.2163226319973610 0.2873547878633858 0.8699401147452406 255 255 255
-0.3335480127514341 0.2165645137184184 1.0949626738499560 255 255 255
0.0211595768445214 0.2630629701698801 0.9495596957519492 255 255 255
0.1653579709587989 0.2839060057713021 0.8979093623659375 255 255 255
0.0154037183834941 0.2619380050467557 0.9502358004337692 255 255 255
0.2112941314711243 0.2890748155729792 0.8697402470322331 255 255 255
0.3955370583129625 0.3125724089886706 0.7874880605872632 255 255 255
0.0901458718492725 0.2739318383556444 0.9232616145515098 255 255 255
0.1006836144344774 0.2741861677492285 0.9145174469638135 255 255 255
-0.2368313667962023 0.2307430024204994 1.0546382254788957 255 255 255
0.1520355719239463 0.2813560337757580 0.8925207616521480 255 255 255
0.2270535589200016 0.2923557945932940 0.8584620144008461 255 255 255
-0.2740916305899903 0.2275458983185832 1.0670778220016803 255 255 255
-0.0531802366567646 0.2500074985811751 0.9467779055204524 255 255 255
0.2138651393686777 0.2898823188029386 0.8573081847445109 255 255 255
0.3578273936916161 0.3098062978516929 0.8048957218127657 255 255 255
-0.2026435844453807 0.2377003480217714 1.0341968099682939 255 255 255
0.0989279148349800 0.2767019072628774 0.9100877842170769 255 255 255
0.2834074598528167 0.3010743899924297 0.8321345359889403 255 255 255
0.3233772311568255 0.3040243026561685 0.8079034099181526 255 255 255
0.3703605146250295 0.3140751538967066 0.8012699675469106 255 255 255
-0.3796920968631415 0.2143591493840072 1.1057997475119987 255 255 255
-0.2848662717677888 0.2257927748706181 1.0645006288419889 255 255 255
-0.1898515023346024 0.2390273641567184 1.0261813507282505 255 255 255
0.3693274660763191 0.3123842817039471 0.7948024641260236 255 255 255
0.2161535592485642 0.2907835878639573 0.8484319671678442 255 255 255
0.3099986372487145 0.3045986223417447 0.8174371970155665 255 255 255
-0.2652986395738339 0.2303653326358359 1.0539049156161244 255 255 255
-0.1929825773590252 0.2398145861027654 1.0266348819275795 255 255 255
0.3004475047904887 0.3035138261519039 0.8190424990125340 255 255 255
-0.0608005306095267 0.2541664944966048 0.9555058647299485 255 255 255
0.3440711359855975 0.3110861356826415 0.8017163560740501 255 255 255
0.3595669261602290 0.3148000207342334 0.7973448774073728 255 255 255
-0.1639560455595173 0.2442386320652510 1.0077668103038935 255 255 255
-0.1599863452774901 0.2444694461196799 1.0056807494811268 255 255 255
0.0305269899818459 0.2700877045661763 0.9306174804493370 255 255 255
0.0830915020071323 0.2768789975962447 0.9060534262860411 255 255 255
0.3432637892206394 0.3104796277600226 0.7979290677232251 255 255 255
-0.1984023492842537 0.2405840651416451 1.0229558116535302 255 255 255
0.3382991437088529 0.3111561402021401 0.8011337036062485 255 255 255
-0.2320371876014329 0.2370876983987145 1.0368676805673358 255 255 255
0.0577069191017916 0.2751493168138204 0.9163553751975027 255 255 255
0.3678327968791102 0.3151193937311856 0.7837551489785390 255 255 255
0.0245778504725545 0.2708197199416108 0.9268801543078800 255 255 255
0.0856430813564923 0.2785908316146282 0.9001854061691432 255 255 255
-0.2033092754388330 0.2411678403772534 1.0205742987669764 255 255 255
-0.1343200744891444 0.2507882454964385 0.9909567968505575 255 255 255
0.3429093598374053 0.3130300842278730 0.7955940960162997 255 255 255
-0.1273501812949509 0.2512412351649204 0.9884155662986021 255 255 255
-0.2441537831094900 0.2361283895933453 1.0330555122118383 255 255 255
0.1433565013075828 0.2864808700451258 0.8714941783854382 255 255 255
-0.2586236208895758 0.2351327356853412 1.0391895998212686 255 255 255
-0.2772023676972304 0.2328191978692473 1.0461661688054065 255 255 255
0.3340265685992732 0.3125603839949610 0.7924099248835312 255 255 255
0.1765173375659854 0.2924410435312605 0.8573092128506401 255 255 255
0.3136133018997391 0.3106404874527824 0.7999664875427879 255 255 255
0.3395039771461619 0.3131087555082264 0.7882799014612614 255 255 255
-0.2715037705595362 0.2347237294731057 1.0421804074044694 255 255 255
-0.1793823621185240 0.2462323542013354 1.0033945115434788 255 255 255
0.2952932203372818 0.3081253081872699 0.8056954672789178 255 255 255
0.3563295577474790 0.3152221979150172 0.7722210079745278 255 255 255
-0.2198007344173121 0.2420028563926193 1.0188629956613315 255 255 255
-0.1546124939031817 0.2501265853312260 0.9883426440423371 255 255 255
0.2806879821540598 0.3073567031503379 0.8125862081919619 255 255 255
0.3042799420612878 0.3105207142152648 0.8039132065787606 255 255 255
0.3375533569499916 0.3156491944973157 0.7908456262791543 255 255 255
-0.2694562985827180 0.2361217844596242 1.0390235984522995 255 255 255
-0.2658885238288438 0.2363539757030964 1.0352290166311544 255 255 255
0.3269625662616269 0.3132489497300353 0.7886022262443255 255 255 255
0.3467492322079408 0.3157670632274889 0.7829162860925067 255 255 255
-0.1352537918238058 0.2536922513414421 0.9813674643448334 255 255 255
0.2075653598385214 0.2969212845162290 0.8348298901605054 255 255 255
0.0975290693332682 0.2837021537734357 0.8843680204382318 255 255 255
0.2048080635797076 0.2983200689836238 0.8360394551567479 255 255 255
0.2347553854571034 0.3023465989217096 0.8259386827451463 255 255 255
-0.0083936527085466 0.2708360219271073 0.9243220047587997 255 255 255
0.0385842859948042 0.2772821166721411 0.9061476062477440 255 255 255
0.1773838487420463 0.2944771222407043 0.8462671604558878 255 255 255
0.2977477373769268 0.3107852231760733 0.7989576008343260 255 255 255
0.3403410792881534 0.3168757756936160 0.7818303511032765 255 255 255
-0.2389480958394463 0.2413471568680796 1.0186859560236883 255 255 255
-0.0978029020011852 0.2592358213560940 0.9611564889494124 255 255 255
-0.0577717044001211 0.2689655186681303 0.9581699352604005 255 255 255
0.2507517913884012 0.3050844564186406 0.8174880064564860 255 255 255
0.3205502121770389 0.3138797504319767 0.7891605871516680 255 255 255
0.2240875591902292 0.3020424324186370 0.8270938972653488 255 255 255
0.2694918222804006 0.3079307789018690 0.8079152632429096 255 255 255
-0.2133577198631298 0.2453475805796208 1.0065634737084226 255 255 255
0.1925016613828916 0.2985724197970958 0.8409686907007430 255 255 255
0.2595638107446057 0.3072757740855483 0.8111625852317221 255 255 255
-0.1674243082369919 0.2524808691565337 0.9879118146179042 255 255 255
-0.0304885519639371 0.2697228042369889 0.9303085919949585 255 255 255
0.3628582466494645 0.3205653415642846 0.7713849350088742 255 255 255
0.3383916984030355 0.3181830002917279 0.7756056711133166 255 255 255
-0.0703643684805693 0.2650747342142306 0.9434882427535234 255 255 255
-0.0658220932311115 0.2650518194538809 0.9371057984461295 255 255 255
0.2683300542105345 0.3092235726437180 0.8035551179578153 255 255 255
0.3047214207793960 0.3140175529603919 0.7903464117787458 255 255 255
-0.1029154202828109 0.2615692559732844 0.9576409431665704 255 255 255
-0.1729458911478376 0.2530745491515130 0.9860779213128854 255 255 255
0.1420690804001268 0.2933258338294555 0.8516107700221909 255 255 255
0.2984302594070574 0.3149980208059340 0.7921226130263666 255 255 255
0.2970177997121901 0.3140332619586315 0.7872410831437406 255 255 255
-0.1251569300673161 0.2589383803772329 0.9572382860695985 255 255 255
-0.1121583657488219 0.2611008686328535 0.9594556324720349 255 255 255
0.1230228181469606 0.2916177840051137 0.8598698584333295 255 255 255
0.1370703344584401 0.2941560267342296 0.8560469175618279 255 255 255
0.1509437082236182 0.2951029414306685 0.8478234654854369 255 255 255
0.3424481278662821 0.3210044688095364 0.7703755123426124 255 255 255
0.1938837028939968 0.3016128367868962 0.8290058749587157 255 255 255
0.1668806301891674 0.2974422439293538 0.8396040776348790 255 255 255
-0.2046659579686700 0.2499651919400128 0.9918750425930405 255 255 255
0.0850350160579882 0.2877291688046668 0.8702841412885700 255 255 255
0.2872505459964554 0.3145461796345139 0.7891471875992329 255 255 255
0.2888818613863045 0.3141708770502634 0.7864546567229542 255 255 255
0.3470709759179034 0.3216105816088166 0.7607864390685446 255 255 255
-0.1094493403959729 0.2628515124219746 0.9508708385524720 255 255 255
0.0610763878046239 0.2859342266334632 0.8809926381565747 255 255 255
0.0551383028311898 0.2849426700611555 0.8822345175482074 255 255 255
0.3348377822449722 0.3212883285867689 0.7679538873340701 255 255 255
-0.0892544566378950 0.2666220378403059 0.9418140449219585 255 255 255
0.1816366515617069 0.3008170997250605 0.8261224877008786 255 255 255
0.2597882522320054 0.3113989744572749 0.7976077541684319 255 255 255
0.3461770964427098 0.3244522370837677 0.7649671310601134 255 255 255
-0.0161137996883349 0.2757949762129628 0.9096058376092309 255 255 255
0.0388387964921426 0.2837263956596676 0.8841292834360637 255 255 255
0.0902538314612304 0.2899402548186982 0.8633762659167321 255 255 255
0.3058985030504076 0.3187284894420541 0.7762608316790409 255 255 255
-0.1550909343995630 0.2588707431372159 0.9642734434728757 255 255 255
0.1614113708180174 0.3004084749300553 0.8350752230579026 255 255 255
-0.1102248582808492 0.2644401579456233 0.9440056868131492 255 255 255
0.0268901970830608 0.2834132121348123 0.8902083696748830 255 255 255
-0.1293794285918395 0.2619854515175071 0.9483503760870358 255 255 255
0.0201884541479123 0.2817861383713907 0.8881717113867618 255 255 255
0.1642264108952496 0.3005122013123032 0.8312279322550005 255 255 255
-0.0997045232457996 0.2661539386202196 0.9370987720189694 255 255 255
-0.0370295901506887 0.2751204630224118 0.9119693847951158 255 255 255
-0.0094901444527888 0.2781671128615972 0.9006450326181703 255 255 255
0.1363574591670940 0.2976505151225552 0.8414385230796668 255 255 255
0.1510261369335089 0.2994288564775571 0.8353321003467009 255 255 255
0.0704668964414541 0.2893992141199995 0.8675253943810386 255 255 255
0.3006557294095114 0.3189718094093890 0.7704175172572567 255 255 255
-0.1038173877830211 0.2666335704750153 0.9372456110033163 255 255 255
-0.0405554949141127 0.2761524925502483 0.9137317522842761 255 255 255
-0.0137478616995637 0.2780434442817401 0.8986330839078294 255 255 255
0.0054621041412872 0.2809231363246143 0.8905749262038061 255 255 255
0.2911376378739532 0.3179402255891342 0.7727440948742192 255 255 255
0.0613949343351727 0.2893445245869666 0.8690380430581541 255 255 255
-0.0789517891210911 0.2709939989066750 0.9253967572247732 255 255 255
0.0342433738665626 0.2865144009725782 0.8818037510979231 255 255 255
0.0744918596642545 0.2907270636964645 0.8609591151662528 255 255 255
0.1246515420984720 0.2973267540805469 0.8403074352757389 255 255 255
0.1673696272570281 0.3021501464210939 0.8225477298268177 255 255 255
0.1835511282494151 0.3045305984948792 0.8153318718258857 255 255 255
-0.1618604113399362 0.2605113970945354 0.9572512323149864 255 255 255
-0.0545151767768246 0.2746555939942210 0.9130918465856119 255 255 255
-0.0391469703109970 0.2762553931978737 0.9062442722303201 255 255 255
0.1261223033555439 0.2978529617548897 0.8374027900624128 255 255 255
-0.1538724328367858 0.2616689375568626 0.9527544367754146 255 255 255
-0.1380657659909570 0.2650421862346608 0.9451528677954837 255 255 255
0.0636489252643964 0.2906980293942789 0.8601710235736819 255 255 255
0.1504438370913856 0.3028233583227768 0.8267485787127278 255 255 255
0.2155643272185390 0.3109142821691639 0.7996704999175108 255 255 255
-0.1118235785853781 0.2683292972392133 0.9322655277840628 255 255 255
-0.0849198889064251 0.2718238000195194 0.9196512004209030 255 255 255
0.0966226168322821 0.2952079559221588 0.8460219911962445 255 255 255
0.1061288755385128 0.2966247962270367 0.8416259691595762 255 255 255
0.2071839701018892 0.3098724432824156 0.8008813986689134 255 255 255
0.2438054206647522 -0.2295398168652009 0.9318072017931793 255 255 255
0.2912471352108144 -0.2047516718748722 0.9106076217074204 255 255 255
0.2841716431077848 -0.1910880073781149 0.9122657162134590 255 255 255
0.4278647076322647 -0.0988961561645253 0.8625799606739341 255 255 255
0.1536207048202041 -0.1336969194612645 0.9969339177315469 255 255 255
-0.4653977093802003 -0.1954710537236183 1.3344613045166689 255 255 255
0.1290555726154250 -0.1071930778245949 1.0119938688799097 255 255 255
0.4371728509605198 -0.0555018547314959 0.8506867658773023 255 255 255
-0.4753932740621075 -0.1473070061721833 1.3707042095767354 255 255 255
0.1509376986883412 0.0358121544393981 1.0447857912527860 255 255 255
0.0987707466042362 0.0542427905952887 1.0943975580617007 255 255 255
0.1715502456658025 0.0709740570892785 1.0351754759246465 255 255 255
0.3570122020581725 0.1009700230118337 0.9404009991081326 255 255 255
-0.5002538503430651 0.0378393953848523 1.6842816953871682 255 255 255
-0.0273582324182620 0.1106680385621734 1.1649220218560057 255 255 255
-0.2648163929058800 0.0863777459986230 1.3132571033936031 255 255 255
0.1493502400116821 0.1366259564815122 1.0734549132499660 255 255 255
0.4448859320983019 0.1791491064255406 0.9302295775959424 255 255 255
-0.4679679786505527 0.0959750856107893 1.4327597752387446 255 255 255
0.6004475262046167 0.2448792134544653 0.9946150651692154 255 255 255
0.4430790898510146 0.2194392755458936 0.9416047028175623 255 255 255
-0.4023112589108555 0.1327741553166879 1.3395335162254227 255 255 255
-0.3592359285593674 0.1406246701103868 1.3120112518920770 255 255 255
-0.0118029081361106 0.1913003303872874 0.9962387095094732 255 255 255
0.0078468052076734 0.1998910593859602 0.9921749181421995 255 255 255
-0.1882554205425233 0.1906596641572968 1.1461306322079325 255 255 255
-0.2557472867856756 0.1842493957506403 1.1754851302085116 255 255 255
-0.1936646867199805 0.1926708399101784 1.1474657013142102 255 255 255
-0.2039880995298877 0.1957428602119097 1.1481388384206890 255 255 255
-0.3739951331162079 0.1784731771928838 1.2231901493953528 255 255 255
-0.1865388380947079 0.2061976498053564 1.1408563738056356 255 255 255
-0.3680701224049414 0.1850631301853786 1.2137943913364411 255 255 255
-0.3681100355488430 0.1862481297817158 1.1998457404678307 255 255 255
-0.3251135135672785 0.1915671613757732 1.1799492765450115 255 255 255
-0.1679527278972888 0.1983750069201977 0.9982554168223712 255 255 255
0.0771690834277852 0.2520334350411115 0.9959613418293056 255 255 255
-0.3710461636359352 0.1939231315321037 1.1609463889251703 255 255 255
0.3578019150805041 0.2870253380946790 0.8459572572576455 255 255 255
0.4205896051959228 0.3090087769716983 0.8113107818226201 255 255 255
-0.4843280437178000 0.1959855093433072 1.2029535169064132 255 255 255
-0.2883974971618786 0.2164003235080763 1.1002607563214957 255 255 255
0.0895738391866501 0.2676730997956613 0.9400914123012045 255 255 255
-0.4614967420699897 0.2019572925880878 1.1510916275316168 255 255 255
0.1560305939632478 0.2858239777659008 0.8800128212458311 255 255 255
0.1436204524933831 0.2844488980360802 0.8830131862484598 255 255 255
-0.1605688793074898 0.2443542777036304 1.0066484326714509 255 255 255
-0.2793792668249405 0.2305508903924539 1.0606871277805365 255 255 255
-0.0538516885735767 0.2581049305888916 0.9578804779960013 255 255 255
0.1711416176151630 0.2901438269619301 0.8604038747341685 255 255 255
-0.1682720593688383 0.2456334087053200 0.9898973619560119 255 255 255
0.0767691155866679 0.2799330245395044 0.8964455658975776 255 255 255
-0.0513096696329439 0.2622471351479899 0.9451047340612216 255 255 255
-0.1812482829549373 0.2492489969433902 1.0059679380607676 255 255 255
0.3053050984171968 0.3083782509649808 0.7835450992624347 255 255 255
0.3688440476074684 0.3197705354094125 0.7709559058043034 255 255 255
-0.1803955253976754 0.2490115862353233 0.9976799875467073 255 255 255
0.1130812112638715 0.2872668524661766 0.8719698293134961 255 255 255
0.1330000286776611 0.2901116603184264 0.8599287796894965 255 255 255
0.2981536702701448 0.3139027391384395 0.7879388958162186 255 255 255
0.0068235641143595 0.2769039240293258 0.8920379610048368 255 255 255
-0.1682494863477171 0.2576760688048130 0.9670800879022396 255 255 255
0.3251221022360111 0.3219803166372215 0.7620981142747356 255 255 255
-0.0841489761640810 0.2701915900801710 0.9292374758459854 255 255 255
-0.4590555578830323 -0.3520762480606814 1.2986763802208250 255 255 255
0.1552536464149838 -0.2537292984637198 0.9839712971097239 255 255 255
-0.0271926578445489 -0.2359713888726553 1.0879932137971053 255 255 255
0.1544482758769627 -0.2025228507187169 0.9988653953073534 255 255 255
-0.3016174503140465 -0.2682591383434438 1.2380905953492962 255 255 255
-0.2567019102922903 -0.2572664404321791 1.2128904668258129 255 255 255
0.1538936605025398 -0.1920452784476023 0.9851568854822368 255 255 255
-0.2110124514015910 -0.2423751208493352 1.1865750085496494 255 255 255
-0.0751630629641786 -0.1991551463555876 1.1252845202330457 255 255 255
-0.3028294157233526 -0.2255216120512217 1.2476802370090228 255 255 255
0.1449112434682274 0.0967447974413038 1.0781877184702555 255 255 255
0.2840892266963900 0.1301285891454004 1.0105117635477772 255 255 255
-0.2623827614321490 0.0910868103264004 1.3110441514839710 255 255 255
0.1326262856897557 0.1691200826372586 1.1075494308100997 255 255 255
0.1320653498448552 0.1988594738685672 1.1154561423357849 255 255 255
-0.4420712561691643 0.1533683061767828 1.2734575374094304 255 255 255
-0.1803439850137920 0.1924707343824608 1.1456335556489261 255 255 255
-0.1790945874735610 0.1717158407285255 1.0247160992890132 255 255 255
-0.1674870524037253 0.1781691664156143 1.0035218309578897 255 255 255
-0.3997302120805853 0.1848527467699550 1.2032873679003921 255 255 255
-0.3149516106240315 0.1986984064039508 1.1713222003721651 255 255 255
-0.2146428653177876 0.2130210988136065 1.1138666051580532 255 255 255
-0.2011808753735345 0.2011306655557723 1.0288544007681129 255 255 255
-0.3650435391687870 0.1946764255568509 1.1657376322887991 255 255 255
-0.2671028222354139 0.2085653980826341 1.1263306740504078 255 255 255
-0.4120606328831731 0.1903704820875187 1.1803690026919389 255 255 255
0.0690908301535659 0.2558234488074424 0.9770858122097595 255 255 255
-0.2052544562286984 0.2208873083056693 1.0856864837205826 255 255 255
-0.2501083454811699 0.2155125974914038 1.1011162425767029 255 255 255
-0.2272550374111345 0.2223372017697474 1.0887163347553437 255 255 255
0.2069725804988174 0.2802100673010610 0.9012376551893126 255 255 255
-0.4212690973826565 0.1967672998042627 1.1601291664461559 255 255 255
-0.3607321505481083 0.2053126708606143 1.1344620684675579 255 255 255
-0.3092393413667240 0.2133371188111859 1.1079819924707310 255 255 255
-0.2394752001580569 0.2225810839173177 1.0824844814468428 255 255 255
-0.1986285468064475 0.2293313817191773 1.0601570996947505 255 255 255
0.3592205342091774 0.3028904691516003 0.8342016664341547 255 255 255
-0.0552393358408558 0.2402517596818168 0.9459761558444004 255 255 255
0.0962334388780146 0.2696086179089385 0.9281329229474116 255 255 255
-0.2760159600110130 0.2263257749712397 1.0637003738271886 255 255 255
0.2587568003240539 0.2988281318413779 0.8459150671589873 255 255 255
0.2035591272712880 0.2911076970433404 0.8592645421797935 255 255 255
0.1674299928218757 0.2889334956580272 0.8708284347101225 255 255 255
-0.2027574740911051 0.2420142783705059 1.0206737470418861 255 255 255
-0.1351854855858394 0.2506231378494419 0.9889255447651348 255 255 255
0.1931080073771945 0.2919041146466737 0.8461275917911550 255 255 255
0.3492793129176031 0.3166438553039255 0.7956126921066051 255 255 255
-0.1729807890243156 0.2478773125929772 0.9966334854507117 255 255 255
0.1424709734180780 0.2900629238929202 0.8689012662755493 255 255 255
0.3206830926638968 0.3135434594648459 0.7884755852347416 255 255 255
0.1225193974207033 0.2911963046094562 0.8592816769555979 255 255 255
0.3234443917608161 0.3178251544932484 0.7816048300943876 255 255 255
-0.1157876337003101 0.2565858501999214 0.9487312337952627 255 255 255
0.3019753314364202 0.3119549210273398 0.7698637695582331 255 255 255
-0.0198206939145156 0.2772030789099267 0.9238517000037650 255 255 255
0.1396914472976398 0.2896381608765086 0.8305116221730771 255 255 255
-0.0174696735796727 0.2779297840483423 0.9207502219930728 255 255 255
-0.1054339404948124 0.2654088353804447 0.9411624684991313 255 255 255
-0.1203709574319557 -0.3177823439582497 1.1141446931019139 255 255 255
-0.0257018906017636 -0.2742758616168126 1.0758030801632739 255 255 255
-0.4012422405189512 -0.3193154868090673 1.2776697322500183 255 255 255
0.0623346958137523 -0.2391973009549331 1.0338461064220335 255 255 255
-0.0276546389995800 -0.2172409291481914 1.0916141702407147 255 255 255
-0.1194917675381113 -0.2246193768436289 1.1450322051582837 255 255 255
0.1053369775031431 -0.1529055782691960 1.0323772518745153 255 255 255
-0.4774448497974341 -0.2159195444191021 1.3499301359395544 255 255 255
-0.4741353585528731 -0.1642918253885642 1.3753804597639157 255 255 255
-0.3933827800571201 -0.0856753141609806 1.3221417778390725 255 255 255
0.1464778355712610 0.0863729339763131 1.0782323519687047 255 255 255
-0.2176733019116341 0.0754204016445864 1.2687814996593896 255 255 255
0.3319512482413440 0.1517636164846592 0.9905651742026178 255 255 255
-0.2552643220479798 0.0889443786154600 1.3106327085748632 255 255 255
-0.2160359231746956 0.0948989191433192 1.2975209654257007 255 255 255
0.4481376419016971 0.1873592344262208 0.9344724239721005 255 255 255
0.1235575335095724 0.1509355886469090 1.1111419757748191 255 255 255
0.3291366339447768 0.1862151079421440 0.9999932025520548 255 255 255
0.6004995246721130 0.2440225554835838 0.9941886072166017 255 255 255
0.0880594600386520 0.1704969400752115 1.1336348440740940 255 255 255
0.1113003092258218 0.1753410294399149 1.1223850076443993 255 255 255
0.1022431856042615 0.1991390491038082 1.1372407981259163 255 255 255
0.1412473280179827 0.2081834777487908 1.0984968784698308 255 255 255
0.1956552318177973 0.2177172874834463 1.0666961904772103 255 255 255
-0.0136265159003344 0.1892989289728284 0.9915175037798143 255 255 255
-0.5280650119860778 0.1436292815319818 1.3162088145072810 255 255 255
-0.4186291157743684 0.1641298348272668 1.2555598962778380 255 255 255
-0.1950502855291969 0.1920946145630094 1.1479372778679071 255 255 255
-0.2508345661961344 0.1917596456062556 1.1696508045150620 255 255 255
-0.1604621022894399 0.1892717001578470 1.0176559656861697 255 255 255
-0.4321031680223403 0.1815110070764615 1.2385265862022616 255 255 255
-0.4105490297701534 0.1878671768034891 1.2133298859309241 255 255 255
-0.3699851123964364 0.1925823079778191 1.1777710241599202 255 255 255
0.0854694814799881 0.2541533520506678 0.9870798381162169 255 255 255
0.3016442106451365 0.2900576529170618 0.8725781685417076 255 255 255
0.1357066761633279 0.2729301434394313 0.9576216858264601 255 255 255
-0.2320497360608409 0.2219346800535291 1.0893855540786697 255 255 255
0.1514619684027174 0.2737058430334853 0.9209311209543198 255 255 255
0.0170789454757010 0.2589762988494924 0.9626820903650319 255 255 255
-0.2028422264034493 0.2310415191927131 1.0529130934154027 255 255 255
0.0710672395077339 0.2640555385873560 0.9262009521149124 255 255 255
-0.0301272768635297 0.2467304710399940 0.9347730883080612 255 255 255
0.0988547412756922 0.2722779568175542 0.9171968940014610 255 255 255
-0.2314953694789885 0.2317909601707715 1.0544480429420275 255 255 255
0.1531732699507495 0.2798971542821653 0.8940055915346301 255 255 255
0.0087426495229335 0.2613850271968595 0.9430226932216654 255 255 255
0.0876576899676371 0.2743139122457681 0.9127630050821809 255 255 255
0.3661781662994343 0.3120535974390477 0.7948555813139233 255 255 255
0.3133154115644565 0.3101538003512145 0.7996207528507404 255 255 255
0.0300267764721611 0.2730009720637910 0.9080657683061942 255 255 255
0.0654471121588931 0.2864771826345089 0.9177502927709682 255 255 255
0.3472177952781159 0.3197929303988767 0.7726746415019763 255 255 255
-0.0349426717315093 0.2710969405010805 0.9356418987967650 255 255 255
0.0905654061629440 0.2864233275011470 0.8633661103147334 255 255 255
0.2879720969835544 -0.2119785127874270 0.9106319511306729 255 255 255
-0.2095060320858773 -0.2822883829579328 1.1781544253106260 255 255 255
-0.0264655372272864 -0.2237710160088099 1.0885319249682590 255 255 255
-0.3103617123194353 -0.2237743081494624 1.2537085126926857 255 255 255
-0.2208915120724129 -0.0237268532212708 1.2430222103407260 255 255 255
0.3344006626383695 0.0711195415523549 0.9509460036438320 255 255 255
-0.4709123133123268 0.0190895589087089 1.4130108395765335 255 255 255
-0.4713804728224112 0.0538428600910851 1.3760389019707953 255 255 255
0.1556841667793876 0.1465030997637933 1.0707243162641902 255 255 255
-0.2610715851601650 0.1080073048885443 1.3150451863500521 255 255 255
0.1139111888247886 0.1741734238138068 1.1234337772086818 255 255 255
-0.1434752714608516 0.1454879139943110 1.0519703684724835 255 255 255
-0.3745046728038934 0.1465081792152347 1.2940751442479743 255 255 255
-0.0913127441141750 0.1791737797776842 0.9656731629956632 255 255 255
-0.3473527174744391 0.1779057920440303 1.2161156060651683 255 255 255
-0.3126439495874915 0.2045550595440589 1.1897382800874841 255 255 255
0.0692887240106987 0.2524304654131289 0.9865512499062206 255 255 255
0.2297066414655049 0.2715479436294688 0.9152184744332992 255 255 255
-0.2029580618275491 0.2200568319539156 1.0979028392697874 255 255 255
0.2644638699952893 0.2832333974090377 0.8856701361157020 255 255 255
0.3345781351252963 0.2898091462188637 0.8539488521964138 255 255 255
0.3234598569603904 0.2946313557849951 0.8538428795069013 255 255 255
0.3555650301270177 0.3001902766481015 0.8366293546983723 255 255 255
0.1704392587822419 0.2791642211480325 0.9081541870593419 255 255 255
-0.0496301094245846 0.2493016883228676 0.9413588295626960 255 255 255
-0.0756053216750848 0.2557806154870917 0.9600940626488537 255 255 255
-0.0199514799525033 0.2652569494487609 0.9361825841023066 255 255 255
0.3576922068370718 -0.2662817920958022 1.3086085110851942 255 255 255
-0.3693597238434607 0.1856047554957649 1.2295582988589984 255 255 255
-0.1884958503360932 0.1950768099951543 1.0090775813038233 255 255 255
-0.3280792471521616 0.1995253413679006 1.1591806801368580 255 255 255
0.1994648758544333 0.2667225781856208 0.9287759786819461 255 255 255
-0.0743528865633838 -0.2061963780160205 1.1233376237303290 255 255 255
0.1075592980721893 -0.1679459467007812 1.0294865262441841 255 255 255
0.2959857607142307 -0.1063330782213894 0.9354850438041107 255 255 255
0.1590689271360985 0.1373578417767757 1.0813324702110190 255 255 255
-0.1437809624463720 0.1450932908409683 1.0488968180323832 255 255 255
-0.1608357328545060 0.1825162424264455 1.0069495670716195 255 255 255
-0.0240228028176031 -0.2189326996750449 1.0956542412053736 255 255 255
-0.4517577426037366 0.1196158485148402 1.4090343216590338 255 255 255
0.2435475164095209 -0.2696337467868795 0.9191569085383395 255 255 255
-0.3025268620977055 -0.3549554960978512 1.2095346274669723 255 255 255
-0.0286505242786932 -0.2935615801948979 1.0660939732365069 255 255 255
-0.3024915290585324 -0.3375137615205012 1.2139108126572404 255 255 255
-0.2571907922499652 -0.3287004279906541 1.1924286244090698 255 255 255
0.2888651731939973 -0.2407795902002847 0.9023903794941432 255 255 255
-0.1973382965209862 -0.3134553391182496 1.1460357823782765 255 255 255
-0.3576708249761511 -0.3405026414046812 1.2337936198732962 255 255 255
-0.2624395481487536 -0.3229740781726844 1.1806702712154120 255 255 255
-0.1756669868047471 -0.3087117610600156 1.1392968090788114 255 255 255
0.1613498983206076 -0.2555464604706592 0.9773944036262066 255 255 255
0.1554014719342689 -0.2493122817311948 0.9701804261331537 255 255 255
-0.3926322175817031 -0.3388955305541847 1.2588559233584831 255 255 255
0.1533049223142724 -0.2433713190888006 0.9805552355263689 255 255 255
-0.3021142052357875 -0.3188110129236627 1.2205951376863973 255 255 255
-0.0755702636908442 -0.2775220475622350 1.0999517239406273 255 255 255
-0.3029525851448724 -0.3140876711620957 1.2216991351543598 255 255 255
-0.0257298215238464 -0.2624869764134150 1.0746145875048079 255 255 255
0.1069133527762818 -0.2359110432016056 1.0073688525438462 255 255 255
-0.2567364878684018 -0.2982524815466281 1.2068274414736102 255 255 255
0.0615608376756931 -0.2368212302564215 1.0336681291874612 255 255 255
0.1071434105161502 -0.2198533814399630 1.0127764897687808 255 255 255
-0.4589123855704010 -0.3124740167894292 1.3168829689524322 255 255 255
-0.2568479783376785 -0.2780437158057201 1.2068492002276716 255 255 255
0.1064887001884947 -0.2106275284212565 1.0191693014541394 255 255 255
0.0605204202280518 -0.2135445218403462 1.0404538867480753 255 255 255
-0.0286084030950793 -0.2263335326075522 1.0903736206696906 255 255 255
0.1553913557382458 -0.1942529688115506 0.9925818980331194 255 255 255
-0.3655973791222591 -0.2764703330938303 1.2572497560622544 255 255 255
0.3346260563256607 -0.1536998656641876 0.9022519010366086 255 255 255
-0.0754858447297773 -0.2237370344320073 1.1167434769146394 255 255 255
-0.4514039956390876 -0.2811484898962879 1.3171950331614877 255 255 255
-0.0756384553297160 -0.2110898265112452 1.1183520664935998 255 255 255
-0.2569333135519760 -0.2415924463839911 1.2182379563624224 255 255 255
0.0609068458322195 -0.1784023088977253 1.0516708704140729 255 255 255
0.1533695649612721 -0.1595180942510141 1.0048131940500129 255 255 255
0.1509034258179405 -0.1540299946998621 1.0082829411423093 255 255 255
0.3335771447041154 -0.1140406384816067 0.9136482157627435 255 255 255
-0.4593901290582624 -0.2488134162563860 1.3310413583335827 255 255 255
-0.2346191552667090 -0.2084863970614368 1.2208525740245977 255 255 255
0.3133625787268222 -0.1141117209781450 0.9248171080266250 255 255 255
0.1491019598138577 -0.1190224914811614 1.0046836507623715 255 255 255
-0.0247417468604267 -0.1473299376715149 1.0974566504851844 255 255 255
-0.4401652416470063 -0.2008418744330528 1.3143856673074836 255 255 255
-0.2467088034912299 -0.1418738599955551 1.2181322564614288 255 255 255
-0.4708878495695252 -0.1611898071049609 1.3417272101964670 255 255 255
-0.4729965973251797 -0.1435804319637888 1.3538475840955453 255 255 255
-0.3509187994998877 -0.1081165701602255 1.2883614196617366 255 255 255
-0.2120954081721993 -0.0435027124562355 1.2268813893487378 255 255 255
-0.2139328805256611 -0.0331646991091261 1.2356914490062820 255 255 255
0.1511891311205229 0.0359650388732111 1.0482047705617390 255 255 255
-0.2122116040085023 -0.0230744861672321 1.2341297950377568 255 255 255
-0.2130055581950943 -0.0129692762198564 1.2358920804283646 255 255 255
-0.3968845594400703 -0.0173756178857842 1.3328236803324316 255 255 255
-0.2127721931162760 0.0373018307641226 1.2509362995123396 255 255 255
-0.2154450858389652 0.0371393772779740 1.2623790588807040 255 255 255
-0.3950639540907728 0.0095148365980489 1.3498696661183165 255 255 255
0.0723858429016331 0.1266217376195420 1.1290936389415442 255 255 255
0.1513631133366800 0.1378044981824172 1.0748362167096039 255 255 255
-0.3954160009953265 0.0447750726509908 1.3597447388486295 255 255 255
-0.2279473688066966 0.1057412161525191 1.2860208719464836 255 255 255
0.5519031249839443 0.2779745779898297 0.8949621492571538 255 255 255
-0.1223884954504015 0.1507793795693679 1.2527853875733754 255 255 255
0.0124318092745307 0.1816398206370699 1.1609493993204241 255 255 255
-0.4492118570338284 0.1003132943880518 1.4224758039508281 255 255 255
-0.3931729783923539 0.1175185099069307 1.3782318932971438 255 255 255
-0.3710682730830963 0.1238253834879495 1.3635957454304464 255 255 255
-0.4299434460126155 0.1154615655634298 1.4057711840367166 255 255 255
-0.1432059344200525 0.1521447527300666 1.0633035143653515 255 255 255
-0.4376763270609427 0.1219210933663368 1.3876290715059598 255 255 255
0.5101518936131146 0.2952518259007162 0.8383908261136361 255 255 255
-0.3757698326643606 0.1347662196329367 1.3386062881848515 255 255 255
-0.3997623687663179 0.1327585074670536 1.3507074970066686 255 255 255
-0.4502211302627517 0.1314286330038921 1.3612034538284217 255 255 255
-0.1686270927254618 0.1624892225393433 1.0029947029573880 255 255 255
-0.1596909292298903 0.1744967299274556 1.0016256745130521 255 255 255
-0.1978170433504534 0.1898179955544977 1.1550294533014549 255 255 255
0.2973197211519886 0.2847968113611084 0.8648334861399929 255 255 255
0.3741849061594493 0.3026931293664861 0.8315842888607134 255 255 255
-0.4143444626876924 0.1568483303938135 1.2665236326126843 255 255 255
-0.1824316554099266 0.1815549734545459 1.0136323581113391 255 255 255
-0.0468134482656914 0.2068489016663255 0.9364234292034563 255 255 255
0.2918073397723830 0.2896309863150681 0.8736088947050207 255 255 255
0.3105706221715834 0.2945434708787549 0.8607330306952150 255 255 255
0.1663199420292605 0.2669378735555128 0.9415470622437438 255 255 255
-0.5042583377071299 0.1435711109667195 1.3077723496332307 255 255 255
-0.1748274484668393 0.2054288744871544 1.1325816807757922 255 255 255
0.3761418457514907 0.3038853676516711 0.8055106866381623 255 255 255
0.0787434610149411 0.2524714565394373 0.9869860076219297 255 255 255
-0.1784597406352610 0.2059161754235797 1.1365256296107065 255 255 255
0.2327261231787601 0.2805584249709183 0.8952153308944908 255 255 255
0.4110499117186874 0.3094813938644685 0.8001399864705725 255 255 255
-0.4195008612187145 0.1607945640184578 1.2550644728694920 255 255 255
-0.2421430957164308 0.1924544554026204 1.1583232406917050 255 255 255
0.1748579005760131 0.2699951026741689 0.9200096766026493 255 255 255
0.2430328984463550 0.2837048174735561 0.8890190769404791 255 255 255
0.3558455240137341 0.3038614282771892 0.8200155978913202 255 255 255
0.0929467396568207 0.2571979565345348 0.9692306846201006 255 255 255
-0.1945895198372156 0.2065699574991343 1.1392823971911887 255 255 255
-0.2167070306527110 0.2030832030734737 1.1523066660791965 255 255 255
0.2513875084550694 0.2876554515808438 0.8794510091834908 255 255 255
0.1112330727272912 0.2631321246707179 0.9583495591840645 255 255 255
0.0780472505671170 0.2572758090883811 0.9780597561237556 255 255 255
0.1106079641395405 0.2644478044543839 0.9690378887114097 255 255 255
0.1978089834895389 0.2783932411643786 0.9085643378499180 255 255 255
0.1128781659419111 0.2634186507174245 0.9547416589237265 255 255 255
0.1840520699707753 0.2757983994958551 0.9103303328016068 255 255 255
