ply
format ascii 1.0
element vertex 684
property double x
property double y
property double z
property uchar red
property uchar green
property uchar blue
end_header
0.2711141794350975 0.1431151097771100 1.0879376478220637 255 255 255
0.3169133064946775 0.1713362301507644 1.1886265623329226 255 255 255
0.1350465843772384 0.1079922633681482 0.8656096800222994 255 255 255
-0.0538881803523363 0.1091298798938027 0.9601219459505668 255 255 255
0.0980948321413098 0.1205955500894127 0.8829699754970742 255 255 255
-0.0091711576227715 0.1233461655775276 0.9323113959314683 255 255 255
-0.0498938142207632 0.1248051143638944 0.9528456499403443 255 255 255
0.3528850334148906 0.2057898514542124 1.1250333366359535 255 255 255
-0.0605542059144515 0.1308359234153228 0.9509176055763187 255 255 255
0.0771210359388523 0.1423505698619980 0.8839111154971471 255 255 255
0.1035053701288034 0.1440312782975891 0.8725386298154721 255 255 255
0.0058983973080544 0.1458140505172104 0.9169776925727872 255 255 255
-0.1000901153055692 0.1482850948943936 0.9657066448028309 255 255 255
0.0914035431021408 0.1688462507461047 0.9506833130158664 255 255 255
0.0533226070590874 0.1700809645255043 0.8873914223675614 255 255 255
-0.0035456620822875 0.1803885152200810 0.9132984919363445 255 255 255
0.1989517954116949 0.2860012449499909 1.1964126536452240 255 255 255
0.2947595011380990 0.2873678200840651 1.1599110068715091 255 255 255
0.0969475615606722 0.2001605613427456 0.8666733664527129 255 255 255
0.3019879857010032 0.2947546524011077 1.1535326948872324 255 255 255
-0.3134931469437928 0.2137943002295535 1.0482433232746471 255 255 255
-0.1200451146425063 0.2162249758790254 0.9594660762899466 255 255 255
0.1021725237589001 0.2085291961296159 0.8552341543040105 255 255 255
-0.0129308334751474 0.2131708876042002 0.9077356534779509 255 255 255
-0.2421751129118989 0.2353549956319978 1.0105127183262850 255 255 255
0.1393817939073019 0.2218492091187721 0.8317174306345254 255 255 255
0.2275067264835667 0.2764150780338722 0.9950213813595110 255 255 255
-0.3236110063911709 0.2485518508768097 1.0519539627924339 255 255 255
0.0455153226100352 0.2383365898526978 0.8750963385040300 255 255 255
0.1929751366557175 0.2670937794923625 0.9279551364764171 255 255 255
0.3210891462387046 0.4173583856160897 1.4033872821016065 255 255 255
0.0918618269369148 0.2430489404784898 0.8556589712081253 255 255 255
0.0513456374155510 0.2490813911045160 0.8781677498879281 255 255 255
0.2716392147521002 0.3241314459147630 1.0690690021971954 255 255 255
-0.0215115647874611 0.2569907164480283 0.9045067129696025 255 255 255
0.0464981137076358 0.2549456187346516 0.8710458532321514 255 255 255
0.0429421926467778 0.2813865418282673 0.9546889766337647 255 255 255
0.2291488223921752 0.3200011516576281 1.0187355215532610 255 255 255
-0.3549410680524385 0.3094146866533327 1.1009624830077733 255 255 255
0.1816386176570017 0.2913041833258052 0.9142947864595099 255 255 255
-0.0328314177502828 0.2822217436007209 0.8991562006528633 255 255 255
0.1355360017048288 0.2683343982750090 0.8215841434598774 255 255 255
0.1018481420943436 0.2753319551770956 0.8371341026579449 255 255 255
-0.2483414120895744 0.3699380347180155 1.1684476570837208 255 255 255
0.1336336996896895 0.2786669442377180 0.8207239175258432 255 255 255
0.0731847619708328 0.2846629466599168 0.8481351703287626 255 255 255
0.3178535676538714 0.3724647370940051 1.0493390631664883 255 255 255
-0.5026161427165534 0.2906156720924360 0.9001739304182852 255 255 255
0.1933887608162514 0.3306484733515971 0.9195770568295667 255 255 255
0.0723834751689906 0.2989637070760359 0.8448157497615809 255 255 255
-0.3030661954721919 0.3438672559959193 1.0127210287476416 255 255 255
0.0375604252878845 0.3066527003263418 0.8607290516350771 255 255 255
0.2585640004674595 0.3998527568319082 1.0859361725204240 255 255 255
0.1342546121536436 0.2948869269918775 0.8093088415881331 255 255 255
-0.0662729969292008 0.3231195341518245 0.9063845909138517 255 255 255
0.2286314059218668 0.3786557386810648 1.0130012757444697 255 255 255
0.1309352668334317 0.3015639961854566 0.8132353152392421 255 255 255
0.0302635493541730 0.3142190898637765 0.8587845116992758 255 255 255
-0.0275474514014407 0.3222876384503246 0.8877682609998099 255 255 255
-0.0771105731972259 0.3283633229851176 0.9062188561260055 255 255 255
-0.0368698545123149 0.3268473994036303 0.8873348107847594 255 255 255
0.3519803144773528 0.4853992103911966 1.2578524153231576 255 255 255
0.0403734901656911 0.3211324471014275 0.8565452305263349 255 255 255
0.1807975307203972 0.3495571607268797 0.9115806741865113 255 255 255
0.0778757793349623 0.3219331877038361 0.8416542733240124 255 255 255
-0.5106089192909302 0.3206698238764055 0.8731276076579877 255 255 255
0.2800250420986643 0.4253828977345799 1.0602568695065058 255 255 255
0.1300223166821184 0.3228408270047390 0.8089915666040886 255 255 255
-0.3223824144343805 0.3914655876888949 1.0090488068740004 255 255 255
0.0834310426595215 0.3339492421907704 0.8380312967462952 255 255 255
-0.4481023047785674 0.3408382799311008 0.8853887128798668 255 255 255
0.1279668993445617 0.3288455097361812 0.8087417341290485 255 255 255
0.2818182900463276 0.4597478760770626 1.1133003760172442 255 255 255
-0.5032569012110646 0.3418185599463103 0.8682844877983824 255 255 255
-0.0017256543865443 0.3600207476495181 0.8617371386694563 255 255 255
-0.4516173546245469 0.3630477675836720 0.8851060314888566 255 255 255
0.3445605301682835 0.5374550980002309 1.2368053406997643 255 255 255
-0.0376443895556872 0.3866968133863374 0.8754620956857118 255 255 255
-0.0293954558105732 0.3925774929047827 0.8769356822965377 255 255 255
0.3461994909235152 0.5690816845932718 1.2344233831649709 255 255 255
-0.0348271352197381 0.3974835979285123 0.8731016177159577 255 255 255
0.0372079991558159 0.3924774760507770 0.8467349368602681 255 255 255
-0.0311828739815476 0.4089331763550879 0.8778775553238845 255 255 255
0.0323109026985332 0.3962639722075815 0.8415260182723735 255 255 255
0.0766397761855745 0.3907072793137156 0.8266320399131850 255 255 255
0.0907224076360529 0.3869708034689313 0.8137645944679016 255 255 255
-0.3311822621629563 0.4731295072604667 0.9952862353469634 255 255 255
-0.3369346040835743 0.4714723713620789 0.9858282173497768 255 255 255
0.0382053418969922 0.4071214319112395 0.8435257601040534 255 255 255
0.0938769739748667 0.4185559425322224 0.7814785088673535 255 255 255
0.1871275957160530 -0.3608844861261096 1.0324667767757409 255 255 255
0.1585769059728472 -0.3063139634934900 0.9548051610942999 255 255 255
0.0666773251163984 -0.3330113801523646 1.0072384890960142 255 255 255
0.1140786282416834 -0.3089827314008720 0.9851004577392724 255 255 255
0.0746741628185556 -0.3104175966290031 0.9925225778905635 255 255 255
0.2853879626028158 -0.2595776923693174 1.1085278464074464 255 255 255
0.4548321025152546 -0.2777861623827590 1.4465213513577968 255 255 255
-0.0754406377883269 -0.3026841966823899 1.0685681661128115 255 255 255
0.1987372660891519 -0.1982442807986263 0.9201523880769928 255 255 255
0.3378178667472099 -0.2265028701337276 1.2188267427549544 255 255 255
0.2551475894201083 -0.1879917055270242 1.0315384030613521 255 255 255
0.1896008078149420 -0.1767832178108597 0.9133397449825630 255 255 255
0.0973304534278314 -0.1995514006532816 0.9581014053501932 255 255 255
-0.2760621085739685 -0.3123801918301563 1.1693515321736152 255 255 255
-0.1704093676507341 -0.2712816171776327 1.1194463367067282 255 255 255
0.2908594197834905 -0.1440114840408698 1.1136603641515181 255 255 255
-0.0981143395428404 -0.2148307217946692 1.0555570198320572 255 255 255
-0.1454981332800853 -0.2134734058761596 1.0690474494340743 255 255 255
0.3435952921733407 -0.1104604398296890 1.2327314467483628 255 255 255
0.3437677378720916 -0.0694657860754202 1.3113982039278702 255 255 255
0.2245631520738092 -0.0593461642053822 0.9908076286524228 255 255 255
0.2911786420481338 -0.0360285285434829 1.1234504783684964 255 255 255
-0.0475201217861371 -0.0457851645814394 0.9881417679802467 255 255 255
0.2472928558266871 0.0078811699496280 1.0393664415267452 255 255 255
0.2190771706049640 0.0111684499106785 0.9684396084829774 255 255 255
0.2616768415239231 0.0283668480652657 1.0744429023008859 255 255 255
0.2155501719467546 0.0331769620136525 0.9647676542207373 255 255 255
0.1817467356008149 0.0341997025106229 0.8888841078892227 255 255 255
0.1570653462547300 0.0328927619156556 0.8657664264626543 255 255 255
-0.2057859382846236 0.0207045136813760 1.0501556748765988 255 255 255
0.1862813015782255 0.0894119875864994 0.9075945593468560 255 255 255
-0.1704933644770243 0.0654015988694695 1.0169595747415974 255 255 255
-0.0343889271014385 0.0947917703464537 0.9485061548663678 255 255 255
-0.1555411864274850 0.1265848273157001 1.0001315215780560 255 255 255
0.0937522297178855 0.2113674879010438 0.8605552105197871 255 255 255
0.0013253065963510 0.2563553310357993 0.8937662321668340 255 255 255
-0.0514918709072325 0.2819208537084498 0.9073220932528396 255 255 255
0.1856928357435782 0.3008975185955785 0.9075750944331933 255 255 255
0.1978265978318068 0.3092953394344189 0.9279776607652281 255 255 255
0.0308865807305222 0.2994015112929319 0.8643557523251336 255 255 255
-0.5062376013367609 0.2942041723294387 0.9055154314501133 255 255 255
-0.5102620700506675 0.3048143306831825 0.8784998499466262 255 255 255
0.3520659647117665 0.4896415906131774 1.2568983400452824 255 255 255
0.3023966426216385 0.4585883951329762 1.1618905248396241 255 255 255
-0.4493635847303973 0.3349150192038123 0.8807421331990650 255 255 255
-0.5015676623761223 0.3340343605934502 0.8738100297842352 255 255 255
0.1277515228994812 0.3257363810964868 0.8055215450742723 255 255 255
-0.0597515715998480 0.3593203159964500 0.8896139419416421 255 255 255
-0.0060890018462789 0.3638117542003658 0.8773179698234168 255 255 255
0.0009330975671711 0.3610666159129610 0.8603845644595245 255 255 255
-0.4979667271395076 0.3918966732721698 0.8629036922101880 255 255 255
-0.1768516718222611 0.4480069020535952 0.9171928765527551 255 255 255
0.2169136597360228 -0.2917783666537931 0.9485528889856178 255 255 255
0.4367506947752862 -0.1595011346858072 1.4230858344215709 255 255 255
-0.0228594302283639 -0.1494013063083644 1.0099588563516482 255 255 255
-0.2646098859379786 0.2241776086837908 1.0247923276570767 255 255 255
-0.3321256598825140 0.3627817484429664 1.0091046658317466 255 255 255
0.3358810482616476 0.5688698037578745 1.2014260845398592 255 255 255
0.2067634640744310 -0.3214186970970239 0.9468550018208202 255 255 255
0.4016663103401452 -0.3501304515908278 1.3185514466814521 255 255 255
0.2669495797692212 -0.2562927046141970 1.0627043224020836 255 255 255
0.0393018852621576 -0.3025516600987329 1.0081344147744959 255 255 255
0.2861980399810610 -0.2597377477892512 1.1166759411283516 255 255 255
0.0025688447800301 -0.3093399077802452 1.0468598954161239 255 255 255
-0.3019601092818905 -0.4197028980532578 1.2090521363468407 255 255 255
0.3411586971563725 -0.2271903108629995 1.2401009030633388 255 255 255
-0.1202311621103398 -0.3178404793543477 1.1323730263089047 255 255 255
0.4400961377881143 -0.2095766758860740 1.4330957788389396 255 255 255
0.3614199996491076 -0.1701053567516519 1.2724516913160964 255 255 255
-0.0071198637962291 -0.1942217686400687 1.0056161520153566 255 255 255
0.2874165685628631 -0.1443275181044458 1.1143427131967147 255 255 255
-0.0522213662910330 -0.2025458854064552 1.1200679002860767 255 255 255
-0.0882981323783817 -0.1863825479301157 1.0453625535336144 255 255 255
0.3489787351047894 -0.1000205302264301 1.1286564882862933 255 255 255
0.0852318270649648 -0.1128052964803016 0.9552576686911937 255 255 255
0.0627601568575527 -0.0971530743650355 0.9493248846625955 255 255 255
0.3495983510180282 -0.0595232773960771 1.2612727584673564 255 255 255
0.0842828289786900 -0.0555537672713915 0.9335460718285336 255 255 255
0.0191404798612306 -0.0536783027918884 0.9645356108140036 255 255 255
0.3396067990739188 0.0334768553836189 1.2377237340208120 255 255 255
0.1035592712421077 -0.0042686445582970 0.8924640223183165 255 255 255
0.2147447742151563 0.0350347657464637 0.9655331688318891 255 255 255
0.3312121748108088 0.0949029163107272 1.2287172738774346 255 255 255
0.3272094713584808 0.1232989114191034 1.1974386664697652 255 255 255
-0.0660161107945648 0.0818845995470850 0.9679572595385291 255 255 255
0.1062399133009586 0.1467551693782069 0.8701306032499604 255 255 255
0.0640284814078678 0.1473647009253742 0.8958633609223559 255 255 255
0.1048280871798463 0.1592849646602847 0.8676563449625118 255 255 255
0.1395832711510252 0.1545322838701059 0.8375014094671845 255 255 255
0.3542194854801461 0.3249100445947735 1.2916482333534667 255 255 255
-0.3126802568144572 0.2088886640104429 1.0499084598469273 255 255 255
0.3446653717439542 0.3894350739015002 1.2854182388044668 255 255 255
-0.0552491501803958 0.2833349936609634 0.9080024768644857 255 255 255
-0.0083428846084219 0.2816015347075241 0.8883222185079085 255 255 255
0.1956578719758663 0.3183437494251816 0.9537765345193948 255 255 255
0.1665906023178787 0.2907817879636878 0.8679867197350979 255 255 255
-0.3214055130400106 0.3234677060012915 1.0255946082046123 255 255 255
-0.4801411343153465 0.2869485949808282 0.8789448216742572 255 255 255
0.3508095142299452 0.4932828617623144 1.2565963117235146 255 255 255
-0.5083193226740550 0.3156629958828510 0.8796382889770481 255 255 255
-0.4479091919637052 0.3319844512881701 0.8883939464682892 255 255 255
-0.0631887814902661 0.3444521400931410 0.8854232967319151 255 255 255
-0.5019010248312519 0.3317650246204351 0.8760772650330354 255 255 255
-0.0941835433745225 0.3433110525359488 0.8728564614059697 255 255 255
-0.4484788587058482 0.3536260509577530 0.8898108878573892 255 255 255
0.0022901269438419 0.3667278314654056 0.8606520148357718 255 255 255
-0.3289448317550979 0.4887941797289140 1.1211185967689150 255 255 255
-0.0621883761119859 0.4093194909210944 0.8829762203064643 255 255 255
0.0444722980736578 0.4086408450530287 0.8372222849332430 255 255 255
0.2574179363412993 -0.1955525392383828 1.0546531122219358 255 255 255
0.2649042542520603 -0.1604967034777817 1.1969354280335107 255 255 255
-0.0042143761343473 -0.1892062580478585 1.0188395736170128 255 255 255
0.1836935068350498 -0.1165106424159760 0.9066141794076383 255 255 255
0.2303980165092998 0.0329476452275578 1.0303894351288791 255 255 255
0.0022894673862135 0.1567553994765467 0.9154842515677215 255 255 255
0.3561529684203542 0.3243656956846171 1.3077962215719583 255 255 255
-0.0917987440250357 0.3265135659504659 0.9106586341893957 255 255 255
-0.0622270710978990 0.3530422250561155 0.8864079614834414 255 255 255
0.0447615881398540 0.3516969911975352 0.8344194019487308 255 255 255
-0.0186561228312435 -0.1218992480738035 0.9981697065699330 255 255 255
0.4499121121739051 -0.2277656946298383 1.4290500365980350 255 255 255
-0.2896897632350329 -0.3204486928235359 1.1955202719566129 255 255 255
0.1095896385212973 -0.1964982175838559 0.9792936083273736 255 255 255
0.3201355840305320 -0.1272412230310384 1.3140174678359278 255 255 255
-0.2992539716837837 0.0937910498405460 1.1250109120305181 255 255 255
-0.3109713121930398 0.2037770909474533 1.0560403505434248 255 255 255
-0.3314474899353108 0.3199835026089490 1.0219203386787452 255 255 255
0.3604943361049434 0.4379399070021345 1.2633176850296799 255 255 255
-0.2460143021465286 -0.1877651936086289 1.1408647073214091 255 255 255
-0.3437654279506924 0.2432369924119318 1.0516778732028260 255 255 255
0.1343306893338714 -0.4551920071221573 0.9777153152453754 255 255 255
0.1615040940985294 -0.4425979102378625 0.9776970821228577 255 255 255
0.0411956935536609 -0.4532264349649928 1.0327668324627715 255 255 255
-0.0682175751437282 -0.4370716788746347 1.0845346092312425 255 255 255
-0.0696273641533626 -0.4366492795164288 1.0975493360957844 255 255 255
-0.1440076390334741 -0.4440674748528197 1.0959521555826390 255 255 255
-0.1352747153872575 -0.4274340799906152 1.1177371508222960 255 255 255
-0.1354801036236915 -0.4144820476305715 1.0940252871894118 255 255 255
-0.2422397392008478 -0.4483872974366064 1.1661945113991519 255 255 255
-0.2578453638989153 -0.4494443697273306 1.1672850921088087 255 255 255
0.1693255346315543 -0.2971986094895024 0.9510099199225024 255 255 255
-0.2126319160804869 -0.4176989829129462 1.1269133953396091 255 255 255
-0.2379391680699368 -0.4321948109792887 1.1705476263388155 255 255 255
0.0087878395391732 -0.3370993263969322 1.0478992938793303 255 255 255
-0.0971102377760893 -0.3409635924713438 1.1147738321798615 255 255 255
-0.2936578481970560 -0.3942445869619167 1.1995542316318453 255 255 255
-0.2876481417782659 -0.3740232693675108 1.1892132197440186 255 255 255
-0.1418717090389868 -0.3019806882644872 1.0946778712528622 255 255 255
0.0663246350976073 -0.2242982086472694 0.9830009966447297 255 255 255
-0.1887345392414529 -0.2754420859615105 1.1256077975635099 255 255 255
-0.1959299594779560 -0.2694574953899218 1.1286993469701851 255 255 255
-0.0255504991987191 -0.2078510674349094 1.0252527367315420 255 255 255
-0.3055137931608630 -0.2474832698514658 1.1971770565439550 255 255 255
-0.2156982421297383 -0.2179134117524104 1.1260049017859244 255 255 255
0.1162925520623994 -0.1083942289023027 0.9324552618731463 255 255 255
-0.2979583300736284 -0.1884784739230472 1.1477560848363892 255 255 255
0.0603613081838382 -0.1121751172703514 0.9563859083397664 255 255 255
0.0551035888642373 -0.1070164020437956 0.9599892997998104 255 255 255
-0.2048456888375709 -0.1607395994336952 1.1081741790514668 255 255 255
-0.1334728411405905 -0.1426370157164042 1.0701902738897879 255 255 255
-0.2922429586534661 -0.1707127492013722 1.1389366775929877 255 255 255
0.0421498962731403 -0.1033615101449766 0.9655238945083783 255 255 255
-0.1451399446541566 -0.1352768421280506 1.0644458911814556 255 255 255
-0.0319069404107110 -0.0999032001894928 1.0017047074853658 255 255 255
-0.1474933892260986 -0.1132522340683734 1.0550225528435213 255 255 255
-0.1387583256167925 -0.0923562761067535 1.0546272301068531 255 255 255
-0.3001796152409789 -0.0998004717448371 1.1215565346051979 255 255 255
-0.2117793880918422 -0.0853288167450017 1.0892808097081677 255 255 255
-0.2502891821151728 -0.0655151336092522 1.1027398357231735 255 255 255
-0.0015121057516485 -0.0123251032780883 0.9871214201340485 255 255 255
-0.0061793571519088 -0.0100272966238839 0.9643315991507908 255 255 255
0.1012797024722540 0.0057498254178201 0.9078360686785019 255 255 255
-0.1557110692054342 0.0009059908627097 1.0305989671336724 255 255 255
-0.1571252230992871 0.0359094842624251 1.0213751537005993 255 255 255
-0.2304011789176782 0.0518894089960557 1.0545700678095116 255 255 255
-0.1676728761641110 0.0811335451375339 1.0140024905315814 255 255 255
-0.3110359593097187 0.1073159372254140 1.0719461123056342 255 255 255
-0.1723800546044649 0.1439855454796727 1.0011839822173720 255 255 255
-0.1308677164761504 0.1747196767430653 0.9734152401346871 255 255 255
-0.1328908479716446 0.2021701765795273 0.9657956259854659 255 255 255
-0.0799619861135792 0.2079047760741620 0.9401498760663429 255 255 255
-0.1725180671170563 0.2378010835843838 0.9751799615766266 255 255 255
-0.2125060760336214 0.2435137191992990 0.9921698958192662 255 255 255
-0.3215770773785384 0.2582714293245942 1.0375987413559702 255 255 255
-0.1361717631002036 0.2622837121799954 0.9510853649577123 255 255 255
-0.0677765564535873 0.3057504646957279 0.9082427380151276 255 255 255
0.3447189557010996 0.4645946539392071 1.2550062484705558 255 255 255
-0.4928793193643167 0.2832482066983871 0.8803817662636455 255 255 255
-0.0350653532759155 0.3242557133150420 0.8881476477875633 255 255 255
-0.3313751342319348 0.3591600622759540 1.0110987352527598 255 255 255
-0.3250068444114504 0.3722606926748821 1.0107083783252910 255 255 255
0.3401745675205418 0.5221878764054698 1.2508814240523005 255 255 255
-0.4921710650242385 0.3477144554147585 0.8798361079773780 255 255 255
-0.1878109171110395 0.4187380986160338 0.9336194725453657 255 255 255
-0.5006689537625503 0.3769745660670888 0.8612472725861899 255 255 255
0.3290852430160620 0.6082488146134742 1.2243683875364670 255 255 255
-0.0515770971882286 0.4209946962140002 0.8513820655830751 255 255 255
0.0304651401018879 0.4631167228504736 0.8296820784862875 255 255 255
0.3235866768878084 0.6901287212562550 1.2051852721878769 255 255 255
0.0606392224993760 0.4611375394706069 0.8132050975124796 255 255 255
0.1239783180091061 -0.4534956742960227 0.9911918263694066 255 255 255
0.0989757578860398 -0.4551368389999518 1.0057076696167946 255 255 255
0.0923073634877751 -0.4291487151767536 1.0075962607352118 255 255 255
0.0595763335650471 -0.4426141055871324 1.0242635467582901 255 255 255
0.0703623716453329 -0.4279002358846661 1.0156242704864304 255 255 255
0.0487342273458195 -0.4254405595540707 1.0314283647115903 255 255 255
-0.0262274073255018 -0.4477798452526176 1.0628353909841668 255 255 255
0.3446900594961458 -0.3834602296443439 1.1800618851636557 255 255 255
-0.2512518699316551 -0.4521674362779469 1.1684939716780374 255 255 255
0.0957713416602314 -0.3091473319674434 0.9912075098753641 255 255 255
0.1303659649006761 -0.2963325093736101 0.9816725216179627 255 255 255
0.0485839440194518 -0.2708590298613521 1.0052549550480454 255 255 255
-0.1626274402026446 -0.3142538870398287 1.1114491761769274 255 255 255
-0.1330658670117528 -0.3030318337954277 1.0924279216919384 255 255 255
-0.1221746426591847 -0.2983402336230903 1.0965748279788445 255 255 255
0.1636155625909902 -0.2118407113060573 0.9352257570029939 255 255 255
0.1732602792543639 -0.2053032891451249 0.9260130100798905 255 255 255
-0.0696350818524938 -0.2626708330982764 1.0529788948220340 255 255 255
0.1012425205466110 -0.2156456204840443 0.9815846072257234 255 255 255
0.1803325630231763 -0.1693697324339705 0.9134573329261458 255 255 255
0.0817839996648941 -0.1858442577831935 0.9680207246802544 255 255 255
-0.0397707654750337 -0.1989566365425939 1.0256731264776815 255 255 255
0.0917844130848928 -0.1656120408080161 0.9665632715701180 255 255 255
0.1776632624809015 -0.1412726360069440 0.9087015280285223 255 255 255
-0.1575022487444249 -0.2194911618472787 1.0843221968564580 255 255 255
-0.0272952374311225 -0.1817480338969750 1.0155241555167032 255 255 255
0.1305061797459727 -0.1418417476495337 0.9423968892998308 255 255 255
-0.1614103465753771 -0.2043595748706455 1.0849263724442118 255 255 255
0.0205272550302511 -0.1639460758211510 0.9993883159118372 255 255 255
0.0391144473375633 -0.1507049366331684 0.9823683873871484 255 255 255
-0.1685275768296536 -0.1970867497891007 1.0856211319198434 255 255 255
-0.0195845698754514 -0.1590433462185122 1.0194349650514147 255 255 255
-0.1386700017266738 -0.1819573386694393 1.0693671400256171 255 255 255
-0.0017028845950371 -0.1489709030633442 0.9986277387164029 255 255 255
-0.0258919259606001 -0.1498987237201203 1.0130442565586495 255 255 255
0.0324468940268928 -0.1291733814071959 0.9746643392835788 255 255 255
-0.0355446507699161 -0.1417785598049652 1.0130663725324687 255 255 255
-0.2858253710024037 -0.1916443676034826 1.1391670355000940 255 255 255
-0.1300530694093896 -0.1574452269193823 1.0662343691822995 255 255 255
-0.2744774942870878 -0.1872278552915562 1.1508051088366533 255 255 255
-0.2417091515726667 -0.1568668964222248 1.1274780238694393 255 255 255
-0.0781278112370404 -0.0981049043063291 1.0181768774299209 255 255 255
0.1075702618396533 -0.0569782007285798 0.9223356713807400 255 255 255
-0.0319870076287714 -0.0803690619581733 0.9962054113448378 255 255 255
0.0277081801655283 -0.0697107036313000 0.9705574873061860 255 255 255
0.0261953579646275 -0.0584044303150419 0.9612644211851853 255 255 255
0.1049841227423950 -0.0414304638523759 0.9198291812492849 255 255 255
0.1449777538018647 -0.0338491656868596 0.8989994920701617 255 255 255
0.1143658184551328 -0.0358749663083435 0.9154736996533184 255 255 255
-0.2668364081174228 -0.0939607899617811 1.1087647366098536 255 255 255
0.1114938152775281 -0.0147747687734312 0.9104785781542366 255 255 255
0.0014055044336171 -0.0123178287602222 0.9614313654949391 255 255 255
0.0834073507312490 -0.0037544383432025 0.9189547631836726 255 255 255
0.1091825583586132 0.0047190860756333 0.9063847841559494 255 255 255
0.1238458328302564 0.0056456160688034 0.8965553416170099 255 255 255
0.1598177211221082 0.0281250969113111 0.8723714712367614 255 255 255
-0.0217753856862260 0.0091978903295186 0.9656837965713045 255 255 255
-0.2012941109583214 0.0147917066881173 1.0477278028267341 255 255 255
0.1084591019805460 0.0668668231359437 0.8959218703249850 255 255 255
-0.2798884940079091 0.0386432925798982 1.0770797402653800 255 255 255
-0.1185200915577420 0.0592435004078645 1.0141340725834944 255 255 255
0.3810684392927709 0.1496181338305330 1.3300915665669131 255 255 255
-0.2172366739550492 0.0712291311505486 1.0486849355838994 255 255 255
-0.2072909953991808 0.0834302345015742 1.0323562379795157 255 255 255
-0.1480373290916457 0.1150795030170849 0.9906939722879902 255 255 255
0.0480238803899720 0.1259081239929028 0.9032538840472608 255 255 255
-0.0506820141486158 0.1244418539899825 0.9499887220321214 255 255 255
0.1186236394053134 0.1340090722493636 0.8737143567072123 255 255 255
-0.3138170291342333 0.1265538829225473 1.0674108816629622 255 255 255
-0.2220109864941252 0.1402854339647094 1.0335425730782284 255 255 255
-0.1399191562376298 0.1471977016231407 0.9841750097211316 255 255 255
-0.1315758189864755 0.1627575271560559 0.9761856730742456 255 255 255
-0.3117577372158029 0.1806274350497622 1.0570608966379664 255 255 255
-0.0666189279505336 0.1921749810202331 0.9398205143375143 255 255 255
-0.3123062812150811 0.1974655614445988 1.0505635210701736 255 255 255
-0.2282226787591751 0.2026237305884603 1.0032219636139854 255 255 255
0.0830525495982632 0.2311339285392537 0.8619842593280937 255 255 255
0.0880151941025072 0.2340982210309054 0.8546470002376421 255 255 255
-0.0157531156447046 0.2451792139710758 0.9018026437770369 255 255 255
0.1189712951960847 0.2382377480313858 0.8412440580192890 255 255 255
-0.1298785254787317 0.2596045786949643 0.9553302057815376 255 255 255
-0.0221938694768293 0.2568777115034727 0.9041798338501194 255 255 255
0.0454089796494353 0.2547247411523886 0.8709195267247731 255 255 255
-0.2306523093200347 0.2727139035993334 0.9977893628457406 255 255 255
-0.2472319740603587 0.2867025142791521 0.9957652244063363 255 255 255
-0.2089643538805726 0.2854425897237817 0.9796619097052375 255 255 255
0.1050439721835728 0.2671563714112516 0.8420861805087025 255 255 255
-0.0867400377816565 0.2808558409098781 0.9234724894187900 255 255 255
0.0672028794952987 0.2720157678996249 0.8525641671516020 255 255 255
0.0726680063331598 0.2825053009930680 0.8483467588244640 255 255 255
0.1097081680492349 0.2907598667899315 0.8286691230028831 255 255 255
0.0721212402611412 0.2974442245497238 0.8434325928457912 255 255 255
-0.0235061116902400 0.3177353317857154 0.8913618514512194 255 255 255
-0.0676918088877260 0.3235903295498485 0.9069096521822433 255 255 255
-0.0284059876543514 0.3218754605277921 0.8868196832628314 255 255 255
-0.0363803086741818 0.3264784928936333 0.8884991894604924 255 255 255
0.0394005030265378 0.3206927854924960 0.8563777334397924 255 255 255
-0.4404301434739836 0.3097060177258926 0.8940823053078504 255 255 255
-0.0248018408348163 0.3364743764015414 0.8879586274350622 255 255 255
0.0427453570339247 0.3348711867523356 0.8552594164993375 255 255 255
0.0649101367153636 0.3586174964795534 0.8301452900725843 255 255 255
-0.2806432552369353 0.4148004019727910 0.9931543148215036 255 255 255
-0.0695035047390617 0.3934863005860880 0.8929093604470837 255 255 255
0.0377512267925562 0.3798852879760044 0.8454456645470507 255 255 255
-0.0306150507916885 0.3923004143476250 0.8742168875942546 255 255 255
0.0939538967653427 0.3781556093810824 0.8175080458676086 255 255 255
-0.0157463365613421 0.4003113174551048 0.8589770265793756 255 255 255
-0.0558474610677119 0.4099887548532166 0.8773235763949482 255 255 255
0.0520082126910081 0.3984428793564214 0.8263915413414302 255 255 255
0.0511761885753723 0.4087345379541366 0.8282087795249563 255 255 255
-0.2830389629796894 0.4685637156995591 0.9681936815872951 255 255 255
0.0140884281357255 0.4196372376237620 0.8194097697642019 255 255 255
0.0539701145615976 0.4196302989981270 0.8013300010771032 255 255 255
0.0164426681936223 -0.4488337257489122 1.0667570967987596 255 255 255
0.0401263967795338 -0.4370923085586372 1.0444317266320875 255 255 255
-0.0096865973629762 -0.4436061748372020 1.0628527448994063 255 255 255
-0.0698489250488413 -0.4418285009303170 1.0954601106857482 255 255 255
-0.0345220266336035 -0.4232295935798553 1.0594814718749861 255 255 255
-0.2413910823436533 -0.4492969655473488 1.1691815822185596 255 255 255
-0.2335571004958908 -0.4270453329648626 1.1634525265552802 255 255 255
-0.2900811220333647 -0.4459910671625350 1.1940769810324998 255 255 255
-0.2911672822625092 -0.4383070802306763 1.2076184645038153 255 255 255
0.0391288676187240 -0.2934215395000784 1.0236382726859821 255 255 255
-0.1434738588405128 -0.3020094032434029 1.0958067230007213 255 255 255
0.0553326543322247 -0.1061012755828502 0.9590486818731573 255 255 255
0.0628363337002953 -0.0042145495231754 0.9312400399272430 255 255 255
-0.3120341347223864 0.1023438778360314 1.0728293340756634 255 255 255
0.3398619956899259 0.5148920859298191 1.2285988540060975 255 255 255
0.3505045551755556 0.5569835689162026 1.2314080520615831 255 255 255
-0.4580062791657380 0.4150151051291278 0.8721712294743295 255 255 255
0.1393739875045522 -0.4241237168405956 0.9603444807405588 255 255 255
0.0904080016323405 -0.4279238099468008 1.0067251971596756 255 255 255
-0.0109551566285442 -0.4569059626532317 1.0552011084766661 255 255 255
-0.0267992651193523 -0.4460713201948749 1.0616412447991688 255 255 255
-0.0627293950865194 -0.4577602654690289 1.0827091192158045 255 255 255
-0.0480625950474388 -0.4504914070622330 1.0729683994287686 255 255 255
-0.0573454824586977 -0.4397208635030905 1.0757684422029932 255 255 255
-0.1521945112722062 -0.4547089144366536 1.1209261666484234 255 255 255
0.1393566996902620 -0.3288279364305663 0.9839255236607639 255 255 255
0.1619085438508575 -0.3039630231165639 0.9571177942440301 255 255 255
0.1540043951190337 -0.2940901439965549 0.9610458796537529 255 255 255
-0.2772100780671333 -0.4452113537898208 1.1917120395135861 255 255 255
0.0044035539689518 -0.3253224084772350 1.0463322300582218 255 255 255
0.1904901706495408 -0.2438874118139990 0.9244225717906909 255 255 255
-0.0879875646488181 -0.3360289581753765 1.0867565938996493 255 255 255
0.1575222219100327 -0.2436608071900244 0.9418192511124650 255 255 255
0.1865654521995487 -0.2284275780597582 0.9234474174838228 255 255 255
-0.0224365972797502 -0.2961512556181389 1.0419950776669975 255 255 255
0.0003237180998032 -0.2907446934820004 1.0368708074495121 255 255 255
-0.0405487102015161 -0.2953867082767520 1.0511104387563774 255 255 255
-0.1616987647914779 -0.3127921767831140 1.1142756684702821 255 255 255
0.1644961676200350 -0.2125041520036498 0.9327688831014997 255 255 255
0.1037857371226387 -0.2124348544363367 0.9662298522747539 255 255 255
0.1028849860368098 -0.2001237270450801 0.9622123621287664 255 255 255
0.0344004557437197 -0.2117730678172043 1.0036263896137654 255 255 255
-0.0144459879229981 -0.1896709218564602 1.0136194945810095 255 255 255
-0.0515257704281215 -0.1842466975580278 1.0317422996383965 255 255 255
0.0335239848464881 -0.1608998256468411 0.9849202485757148 255 255 255
-0.1285948532844126 -0.1946280023745841 1.0657636677229374 255 255 255
0.0221390987856236 -0.1618585721719909 0.9991472005948472 255 255 255
0.0916608513642893 -0.1433076645130897 0.9621182914254655 255 255 255
0.2501851288875889 -0.1298550689207278 1.0450372757035411 255 255 255
-0.1394319492150971 -0.1829786874043460 1.0692828864727084 255 255 255
-0.0253802087007416 -0.1497165994945705 1.0110575744083325 255 255 255
-0.0791654521747310 -0.1560832145070312 1.0226694496092026 255 255 255
-0.1379234813440232 -0.1676601185032336 1.0678668972211274 255 255 255
0.1437468251006974 -0.1044781595851622 0.9178508611181102 255 255 255
-0.0366076650949263 -0.1410618751133425 1.0140323021983573 255 255 255
-0.0873672713884855 -0.1397776251162389 1.0439273842843142 255 255 255
-0.1359624558408442 -0.1472355383671226 1.0635780086654611 255 255 255
0.0421517014762407 -0.1028080070800457 0.9651507660332395 255 255 255
-0.0818155133628341 -0.1206607993691855 1.0264795537453568 255 255 255
0.1370847707785582 -0.0743029950253416 0.9167721584838170 255 255 255
-0.1965681443695225 -0.1357501269327319 1.0896114638219430 255 255 255
0.0508129445213714 -0.0818825453253780 0.9554171294913057 255 255 255
0.0966072999462265 -0.0728695554201995 0.9352520954819448 255 255 255
0.1382054365457718 -0.0620551651203974 0.9092075419638537 255 255 255
-0.0305950999681969 -0.0803695200273780 0.9940447986500252 255 255 255
0.1076666761283758 -0.0559038096188374 0.9226451036532637 255 255 255
0.0158036486477119 -0.0709333854426263 0.9627396874665720 255 255 255
-0.0234427008134277 -0.0698094254948538 0.9812616373043748 255 255 255
0.0080435095260918 -0.0585140225142525 0.9704108048222767 255 255 255
0.1045739987229775 -0.0416949259523519 0.9196732413842428 255 255 255
0.0957972491924584 -0.0347630826622882 0.9243954528187822 255 255 255
0.0066611489404049 -0.0326314660047683 0.9649886706929758 255 255 255
0.0124457349567127 -0.0023308689505306 0.9478163824622530 255 255 255
0.0896687355570393 0.0071312031680774 0.9129420033503627 255 255 255
-0.1469850552942726 -0.0087272270804062 1.0305373293060343 255 255 255
0.0120194442082387 0.0098591889503729 0.9499616873253988 255 255 255
-0.0495222638130586 0.0064662090648239 0.9777556922687471 255 255 255
-0.0380111895504510 0.0088528250401899 0.9737383701683362 255 255 255
0.0144478574374034 0.0459096832927678 0.9410013777454117 255 255 255
0.0886163909470106 0.0538870114318520 0.9052277518946360 255 255 255
0.1101821000586642 0.0658557942542684 0.8958937970294875 255 255 255
0.1229282534056348 0.0747341863285806 0.8788818126118504 255 255 255
-0.0286416960147916 0.0656968039971351 0.9548852656253702 255 255 255
0.1052252551553811 0.0756754335372839 0.8880850473029515 255 255 255
-0.2008103686752427 0.0596574687120200 1.0382214437731594 255 255 255
0.0530071237383004 0.0807361279578257 0.9120233515754524 255 255 255
0.1308470602744271 0.0892979930383446 0.8736010217969445 255 255 255
-0.0699203473817572 0.0822191018916111 0.9693766565131818 255 255 255
-0.1234379322756541 0.0865057909340506 0.9939904604032854 255 255 255
-0.2519806782483748 0.0878898378896983 1.0747276154249192 255 255 255
0.0091638304728428 0.1124905880574803 0.9270360138317019 255 255 255
-0.0388991926459635 0.1119188288882692 0.9329217283916803 255 255 255
-0.2568082660845440 0.1184239485274311 1.0474506440601519 255 255 255
-0.1581706131091744 0.1265577419376322 0.9998605772140529 255 255 255
-0.0442923942556593 0.1357052883710590 0.9524924838280352 255 255 255
-0.1478724016006161 0.1358409011983110 0.9889769541401495 255 255 255
-0.2107502588688932 0.1378238169205317 1.0236069872436198 255 255 255
-0.0453622590152864 0.1471112467856509 0.9406798373644562 255 255 255
0.2452459763383004 0.2896352788379529 1.5953780721545745 255 255 255
-0.1180834931976578 0.1481488767520290 0.9738004862022305 255 255 255
-0.1001997513594962 0.1473681483555271 0.9662395630630605 255 255 255
-0.1306748943782311 0.1603852947968934 0.9763990082873620 255 255 255
0.1451524500745215 0.1633175782777068 0.8444089068141982 255 255 255
-0.0202463781139959 0.1643927655057492 0.9233263172801686 255 255 255
0.0735148736555573 0.1677025560859779 0.8790626065801544 255 255 255
0.0527877930013854 0.1884451716346892 0.8845234262622736 255 255 255
-0.0151801489037695 0.1903408120547509 0.9187111690617484 255 255 255
-0.1632237027089923 0.1931496672992616 0.9848796187024801 255 255 255
-0.0664325585198942 0.1920029233983861 0.9383123238893426 255 255 255
-0.3125954515888260 0.2015395048441449 1.0514507237772464 255 255 255
0.0908891467793453 0.2085110125948842 0.8604799012069928 255 255 255
-0.3264993083464971 0.2261330946561825 1.0513961746221558 255 255 255
0.3685713452145906 0.3480904342952402 1.2879988096271218 255 255 255
0.0382854332882019 0.2212313282059573 0.8808909071535245 255 255 255
-0.1117867926354660 0.2495452518057006 0.9455550776496333 255 255 255
0.1194763895918795 0.2376496883357525 0.8377028696838422 255 255 255
-0.2142123938682787 0.2604541691887127 0.9911772379156767 255 255 255
-0.1289154032319219 0.2594623599368107 0.9553870217592620 255 255 255
0.0002399000444898 0.2549522199706757 0.8904353335313137 255 255 255
0.0775961894549416 0.2533043838321600 0.8560755262452188 255 255 255
0.0855646018743192 0.2540464659802581 0.8516065960813173 255 255 255
-0.0168349544056896 0.2681749933867494 0.9019320549555938 255 255 255
0.0899393446650607 0.2666552624134485 0.8508845703455764 255 255 255
0.1041816079095820 0.2663925252264073 0.8434447055980034 255 255 255
-0.0232873121181124 0.2753000860215123 0.8953401022093287 255 255 255
-0.1011004080490021 0.2827934338425185 0.9302643951177055 255 255 255
0.0463442051842989 0.2748760036126797 0.8640699796823963 255 255 255
-0.0829572270255166 0.2896162647549826 0.9191057328788861 255 255 255
0.0050328996308015 0.2865674572707743 0.8791295528717341 255 255 255
0.1107224511878922 0.2906086188236311 0.8278126840096589 255 255 255
0.0304710946695900 0.2996387458969281 0.8640213075442558 255 255 255
-0.1740051403420861 0.3261114477566658 0.9567823313262246 255 255 255
-0.0217224029403777 0.3156888561639776 0.8918437324751266 255 255 255
-0.1136403622275964 0.3235764444903979 0.9268026056605628 255 255 255
-0.1683955545253659 0.3371380016737550 0.9581009016405866 255 255 255
-0.0446604704108353 0.3218354058536009 0.8946751552191337 255 255 255
0.0845336372443276 0.3136210223669889 0.8395532880996865 255 255 255
-0.0233659833198305 0.3358692027661896 0.8887221481513492 255 255 255
-0.2229427136333483 0.3582485570834869 0.9642002719055749 255 255 255
0.0440353987292632 0.3333240633476136 0.8538418034503688 255 255 255
0.0051482532236873 0.3362125846850186 0.8650272559835666 255 255 255
0.0971871087419456 0.3318019202182376 0.8279167173962868 255 255 255
-0.3298042869195997 0.3780185369588295 1.0066545000981377 255 255 255
0.0692408563403213 0.3351116882180151 0.8366655833036259 255 255 255
0.0780251923646176 0.3378259140212797 0.8267654920257005 255 255 255
-0.3234694277157951 0.3890107576098913 1.0017945481833184 255 255 255
-0.1441169746885736 0.3687111231495357 0.9178714637847708 255 255 255
-0.1343088496654608 0.3721911882996793 0.9225801929198394 255 255 255
-0.4525040664737787 0.3527846561242319 0.8881295523396001 255 255 255
-0.4991272632135280 0.3430408768988938 0.8669815187760389 255 255 255
-0.0397649539550220 0.3715242432462899 0.8778161639025783 255 255 255
0.0657552351739175 0.3590507370094688 0.8297868970783713 255 255 255
-0.0669648776017426 0.3829300127656123 0.8926617805447498 255 255 255
0.0009460103395252 0.3717441320256682 0.8589165149601865 255 255 255
0.1032315363350603 0.3589381802910552 0.8127512619075800 255 255 255
-0.1406657157362070 0.3993254763732176 0.9213091761217302 255 255 255
-0.0680230470808490 0.3923445435375357 0.8931595990803628 255 255 255
0.0390550943204462 0.3807779383469111 0.8447447545709071 255 255 255
-0.0158124512738820 0.3878742120481387 0.8619540897635949 255 255 255
-0.1361710156888646 0.4096875221047434 0.9228761673157669 255 255 255
-0.2878213528333496 0.4207923364564772 0.9578072020928986 255 255 255
0.0778695770979338 0.3781249726833485 0.8222965195642560 255 255 255
0.0928905563340038 0.3788556008667948 0.8169998620524161 255 255 255
-0.4527356054995036 0.3869659847303818 0.8800492640313761 255 255 255
-0.0572440522033326 0.4088509646828227 0.8772357289629871 255 255 255
-0.0305717597724723 0.4108388019258574 0.8686253618145838 255 255 255
0.0713399148538420 0.3955187747875770 0.8233639275833137 255 255 255
0.0969757698948882 0.3939954718957365 0.8102004442058774 255 255 255
0.0504166898805883 0.4010222749240228 0.8287921863298821 255 255 255
0.0367115369080380 0.4088969830502339 0.8372338997507076 255 255 255
0.0507078953796807 0.4089230330068072 0.8298637586751276 255 255 255
0.0753722141791589 0.4087465035816324 0.8188160896592122 255 255 255
-0.0516945520421859 0.4209839550911878 0.8507358180658638 255 255 255
0.0540219539751296 0.4191370189774344 0.8008534880126454 255 255 255
0.0567668332851499 0.4399408447903712 0.8068210160607877 255 255 255
0.2681618425697243 -0.2981373377543318 1.0621323674814953 255 255 255
-0.1345537492454607 -0.2965870628369165 1.0957525761222584 255 255 255
0.0353357744220290 -0.1950795357228491 0.9897382427156322 255 255 255
0.0101889623341579 -0.1958134813199126 1.0021300895040515 255 255 255
0.1009402962110891 -0.1637200668717520 0.9536578244235029 255 255 255
-0.0106552600324866 -0.1610148441552852 1.0080796593677028 255 255 255
0.1259691197032137 -0.1295046521573015 0.9309616779125002 255 255 255
0.0668059414211494 -0.0997504904464551 0.9521763769018496 255 255 255
-0.2865586132322921 -0.0789417508893620 1.1183633393390369 255 255 255
-0.2007564478003684 -0.0486396107530092 1.0630731774568563 255 255 255
0.1283440968421874 0.0079762128162263 0.8951670197015935 255 255 255
0.0723825283223875 0.0087225721373370 0.9221380912767831 255 255 255
-0.2051530605156126 0.0195594278644451 1.0490017256410837 255 255 255
-0.3145578166934229 0.0298664945398548 1.1263973108267717 255 255 255
-0.2968853178953663 0.1097136701023943 1.0702342281685180 255 255 255
-0.1747307636372907 0.1226762394383303 1.0086366834805229 255 255 255
0.0691817217369520 0.1306530386462094 0.8920915317575694 255 255 255
0.0587570588971489 0.1449319406061491 0.8914120706037655 255 255 255
0.1044713271493203 0.1453041373159004 0.8712464393187120 255 255 255
0.0861761241597769 0.1569642230307050 0.8774860787497145 255 255 255
0.0049064638482320 0.1890504536855211 0.9059708236706254 255 255 255
-0.2668058969805202 0.2227182501257593 1.0306372028603403 255 255 255
-0.2210022358230640 0.2199565052873623 1.0038520232815387 255 255 255
0.1213645527941789 0.2107395667305570 0.8447058585216503 255 255 255
0.0136384350669438 0.2248247743762535 0.8922102639416748 255 255 255
-0.2243560120006738 0.2867923946405596 0.9863501335965680 255 255 255
0.0322395237488022 0.2711570058118692 0.8702847461829241 255 255 255
-0.0476444400968845 0.2801186065575073 0.9086413110081191 255 255 255
-0.0055233571432178 0.2782120045950897 0.8869927159603991 255 255 255
0.0476152991016689 0.2759716508043314 0.8629616942850193 255 255 255
-0.0833505403096318 0.2897692826739008 0.9198205754634268 255 255 255
-0.1327726673784876 0.3694423926837442 0.9219235995267554 255 255 255
0.0941336115363231 0.3543946809255035 0.8182461302584246 255 255 255
-0.2010782077193003 0.4164234735981824 0.9410425071937860 255 255 255
0.0421033838367360 0.3841472694080845 0.8412006478173012 255 255 255
0.0806448791288506 0.3820524299889728 0.8215114873441303 255 255 255
0.0785125649982513 0.4063777505339944 0.8191416332488953 255 255 255
-0.0527658235851215 0.4203750572315393 0.8507216997059519 255 255 255
0.1790297882754867 -0.1665867101823823 0.9159289034970877 255 255 255
-0.0863607885216837 -0.1608851124633407 1.0465130063293713 255 255 255
0.0216096229905132 -0.0918177529019959 0.9733733145162106 255 255 255
0.1330575580486233 -0.0154583303624800 0.8993593303714780 255 255 255
0.0493513260696939 0.0794850116154314 0.9127214173505982 255 255 255
-0.1001908019293374 0.0681854271097185 0.9894671878098883 255 255 255
0.3906975934434530 0.1684285352750923 1.3301021886790132 255 255 255
0.0280427036889706 0.0990321994041164 0.9193708232711866 255 255 255
-0.3111739901927107 0.1627639830309687 1.0626231208968275 255 255 255
0.0106767603639680 0.2731383688097175 0.8802538346687769 255 255 255
0.3381799783272764 0.5248691808864044 1.2561846071130027 255 255 255
-0.3335460288810339 0.4615851593076947 0.9905442752369309 255 255 255
-0.1381338703679539 -0.4455284088347580 1.1116532336192344 255 255 255
-0.1912832411333364 -0.4479848352506354 1.1693676689460004 255 255 255
0.1159025508126859 -0.3097107097312519 0.9858295652862212 255 255 255
-0.2883958229352099 -0.4041363417957640 1.1961019130399277 255 255 255
-0.1364628664187660 -0.2937366707292669 1.0917944592166984 255 255 255
0.0337201690323917 -0.1924830460485926 0.9884017329467988 255 255 255
-0.2307368216895813 -0.2225458929834187 1.1622665165102475 255 255 255
-0.1158658693987089 -0.1879888597619792 1.0609742306502181 255 255 255
-0.0442039380476468 -0.1547413072168992 1.0180074080162904 255 255 255
0.2969276124965294 -0.0911686624500749 1.1428748065721899 255 255 255
0.0179618505810112 -0.0543665364789226 0.9625045212278025 255 255 255
-0.0236185845747148 -0.0533008179761304 0.9834256213401358 255 255 255
-0.0906502563133351 -0.0511782009745130 1.0148534178985809 255 255 255
0.1036560025831899 0.0235895070195475 0.9020895341178247 255 255 255
-0.0346008750294655 0.0837263690862303 0.9523358624329146 255 255 255
-0.1792060227893378 0.1255865648046524 1.0080130009715162 255 255 255
-0.0683082247173447 0.1289573702366258 0.9546919723697944 255 255 255
-0.1507861851803504 0.1532752379354310 0.9906787068368776 255 255 255
-0.3068153153193780 0.2725187780990905 1.0360069764205333 255 255 255
-0.1849913996249648 0.2855947002560686 0.9677818085473437 255 255 255
-0.1191448228980728 0.2840470125916134 0.9388923128905267 255 255 255
-0.0094997054803951 0.2934429351490349 0.8856708978915885 255 255 255
-0.5037985471277050 0.2995915173574986 0.8827777801216972 255 255 255
-0.3317910947234504 0.3663143603428390 1.0104107684698838 255 255 255
-0.1291824713456671 0.3665332370033449 0.9211685185119368 255 255 255
-0.4936054498768678 0.3487607152870077 0.8957904695115679 255 255 255
-0.0212776733374659 0.3837706050778657 0.8685734716300126 255 255 255
0.0454888877412575 0.3830613407743089 0.8380917095351627 255 255 255
-0.0234057535420622 0.4088525765131252 0.8658377931299641 255 255 255
-0.0618864457197142 0.4162510338896791 0.8646953570754093 255 255 255
-0.1686094025532475 -0.2640943291207704 1.1181573677603396 255 255 255
-0.1718566678003401 -0.0756162564956940 1.0460263765883528 255 255 255
-0.0570036255686754 -0.0544248221287093 0.9987997662135746 255 255 255
-0.2424971282237958 0.0678578324007622 1.2138807694429958 255 255 255
0.0222911334271851 0.2707971464428419 0.8772660599538883 255 255 255
-0.0400783218930141 0.3276498003801195 0.8812236922208893 255 255 255
-0.2323051399580602 0.3592217004169771 0.9669429702360408 255 255 255
-0.0199056186700546 0.3534135670814577 0.8715588360110452 255 255 255
-0.0469961654278160 0.2204664119127545 0.9211355387521200 255 255 255
-0.3336683306246852 0.3732160530636255 1.0061952293815213 255 255 255
0.0045981241477989 -0.1880817643140462 1.0153425236416291 255 255 255
-0.1048832609474457 -0.1888591273043862 1.0657600892367691 255 255 255
-0.2673537289402865 -0.1894084669351654 1.1632255324997129 255 255 255
-0.0924834865565506 0.3152545711963232 0.9094778572554870 255 255 255
0.2118722917068961 -0.4502508212634756 0.9586400065714124 255 255 255
0.1876512218072117 -0.4400544715985976 0.9620025835627783 255 255 255
0.1688494576471241 -0.4332307385343049 0.9755415458502275 255 255 255
0.1052902041294188 -0.4382626052857956 1.0071782252163142 255 255 255
0.0677550014618578 -0.4417787690861132 1.0189137450957992 255 255 255
0.1025994027033474 -0.4294241203492726 1.0018704345384091 255 255 255
0.0033448804669553 -0.4520622528986987 1.0513127821412938 255 255 255
-0.0443074517755673 -0.4503621377714855 1.0705053217303517 255 255 255
-0.0177269884799174 -0.4390794475909019 1.0582751249802558 255 255 255
-0.0949751081512935 -0.4713043128105829 1.1517285408440503 255 255 255
-0.0878274151726588 -0.4231246541879684 1.0545573776168076 255 255 255
-0.1805990731005024 -0.4383045202887318 1.1366023207211424 255 255 255
