ply
format ascii 1.0
element vertex 682
property double x
property double y
property double z
property uchar red
property uchar green
property uchar blue
end_header
0.4305104608356878 0.6221666738792742 1.8160447527645722 255 255 255
-0.2172942727499168 0.7192733820144657 2.2119899827862461 255 255 255
-0.1339115719749202 0.7272490685705497 2.1752961236949293 255 255 255
0.0272016500975827 0.7435103025026999 2.1137521121891236 255 255 255
0.6170713906577987 0.9366099981900327 1.9653956089063840 255 255 255
0.2761545007897712 -1.0310928152434968 1.8230092590264022 255 255 255
-0.2338759600442558 -1.0612880867856427 1.9994211719460964 255 255 255
-0.0423494080714462 -1.0732092439680661 2.0064996308472676 255 255 255
0.3094021963103482 -1.0257878463771546 1.8761841614626764 255 255 255
0.5919804500875898 -0.7162476476028168 1.3524204259871340 255 255 255
-0.4731383717589576 -0.5815885449809879 1.5201258478431632 255 255 255
0.2819388999713750 -0.2737429616730127 1.1455378406485437 255 255 255
0.4636397557940661 0.0430966697724964 1.3148886589881279 255 255 255
0.4614073908746308 0.0671592539849308 1.3324003452000426 255 255 255
-0.1023812505938539 0.2506558814166574 1.7554579479973538 255 255 255
-0.2659287710853322 0.4256741516068370 1.9989372985274345 255 255 255
0.0418905718959957 0.4555306988964437 1.8622691839165739 255 255 255
-0.1598543758256041 -1.0620251697954703 2.0167883496712795 255 255 255
-0.2954077505674226 -0.9175362106134850 1.8374338501065282 255 255 255
0.5267064779945537 -0.9730957408404781 1.7672349978235053 255 255 255
-0.1551694823048009 -1.0243490981096235 2.0374208431136669 255 255 255
0.6316258989535584 -0.7974504938118265 1.4536000044404744 255 255 255
0.5848847019631420 -0.7223416823061750 1.3669296318616755 255 255 255
0.6117481530582056 -0.7594157135399180 1.4313136180533768 255 255 255
0.5659121743776829 -0.6771695732355933 1.3542237341251386 255 255 255
0.5395643391408826 -0.6268531264471429 1.3025958324241498 255 255 255
0.4785625187605884 -0.5225161873226578 1.1351476333330699 255 255 255
0.5438429223213603 -0.6240953593379945 1.3424967814948694 255 255 255
0.4239616905678987 -0.4285695541401850 1.0275775312902895 255 255 255
0.5958337671756624 -0.7762857267640015 1.8042611546005318 255 255 255
0.1086916697632518 -0.3767287918512606 1.0802261116669543 255 255 255
0.3880256709678394 -0.4233212576304226 1.2704286902511073 255 255 255
0.3419328010409752 -0.3133665243771879 1.0060671898371454 255 255 255
0.3961035373663409 -0.2836484118695548 1.0653315382854052 255 255 255
-0.3609815625923760 -0.3204605958995070 1.4046318489128078 255 255 255
-0.3049843606507890 -0.3081420202710682 1.4022524848006659 255 255 255
-0.0711826080914810 -0.2400538718152501 1.3556975378927150 255 255 255
-0.1024521190477241 -0.2324229993239473 1.3652285734237459 255 255 255
-0.1946092365849119 -0.2297131729525899 1.3908275909797663 255 255 255
-0.1505953803868607 -0.2132258519027324 1.4005743341402894 255 255 255
-0.2693539194238816 -0.2126424152426758 1.4372855960567206 255 255 255
0.2729506918949731 -0.1589740166130591 1.2457055428750401 255 255 255
0.3106833480584621 -0.1535378860618974 1.2259296018142409 255 255 255
-0.1859485820398086 -0.1694794659144034 1.4360429409334508 255 255 255
-0.1299036371818041 -0.1583170548091484 1.4358014476794745 255 255 255
0.3622955212505463 -0.0955625059876346 1.2468215176455502 255 255 255
-0.3530563529466042 -0.1024972807724001 1.5730565341331135 255 255 255
-0.1474826346118938 -0.0807131561558667 1.4935666057163246 255 255 255
-0.2494318170884706 -0.0772728641030483 1.5618804708405118 255 255 255
-0.0442068093512704 -0.0556888505735628 1.4850854528629647 255 255 255
-0.2780546920346634 -0.0401710267852798 1.6010638018020309 255 255 255
-0.0731329763690574 -0.0160484870131482 1.5208289091965961 255 255 255
0.1146985408486629 0.0218795033139580 1.4557858463908822 255 255 255
-0.3440984912651275 0.0255532335151358 1.6943914839118888 255 255 255
-0.1020143437483974 0.0392058186107880 1.5875692419972083 255 255 255
-0.2066809723415745 0.0469367942055482 1.6368255142311781 255 255 255
-0.2921953911558586 0.0856113402136862 1.7078071954268150 255 255 255
-0.2413681354467681 0.1240254406139123 1.7318233970101105 255 255 255
-0.0143127753731158 0.1489407426545862 1.6318436539321430 255 255 255
0.1322044971307621 0.1783635120116172 1.5926226180909104 255 255 255
0.4961920526144681 0.1983930253260668 1.4346987521864172 255 255 255
0.4147798335522945 0.2097241643338147 1.4853127240673067 255 255 255
0.2763397039799170 0.2758105841638460 1.6389014374760917 255 255 255
0.0703717616235302 0.3169764768686125 1.7341514558215962 255 255 255
0.5269197116286541 0.4047059950371272 1.5929117559751731 255 255 255
0.5087599404197896 0.4352883086700494 1.6220337165048022 255 255 255
-0.1645081569382323 0.5965275327169075 2.0862049457278138 255 255 255
0.4367807423517363 0.5751965180897773 1.7762867641456097 255 255 255
0.1838408590921539 0.6391208570095368 1.9529847967360769 255 255 255
0.5590240518260927 0.6702457743090555 1.8074185580721256 255 255 255
-0.1399607779259032 0.7163095174419478 2.1475627972462066 255 255 255
0.0220884158963095 0.7379138175010853 2.1038430747822918 255 255 255
0.4014402208077872 0.7770207381624843 1.9495415297831258 255 255 255
-0.1995821957694068 0.8455631599321336 2.2316486759981755 255 255 255
0.0641462258700072 0.9569467029953325 2.2788557157961140 255 255 255
0.6297452630983997 0.9802614380156029 2.0383729388892675 255 255 255
0.4961028527067222 1.0181328514548602 2.0896128954522375 255 255 255
0.1085651652164286 -0.9924788912182363 1.9482401526508042 255 255 255
0.6318576349472096 -0.8072783391601668 1.7121909242905460 255 255 255
-0.4267732184037101 -0.4588946196503692 1.2928444536080264 255 255 255
0.4849389136324209 -0.5133394299289176 1.3689281874739851 255 255 255
0.3975584936114025 -0.2637179845056399 1.0680526090789320 255 255 255
-0.1694170468832763 -0.2931472239120883 1.3412923900569917 255 255 255
0.1055698057768111 -0.2609205256522339 1.2275810104163454 255 255 255
-0.1240204375974471 -0.2399591253423737 1.3664305252112028 255 255 255
0.4319473692656022 -0.1094915614477480 1.1896749063350165 255 255 255
0.3084267122902666 -0.1182036548162038 1.2798628733170609 255 255 255
0.4553387636775610 0.0044226609545095 1.2793181741363568 255 255 255
0.4501414839004751 0.0205094429951120 1.2978055551621441 255 255 255
0.4714327927567581 0.1728202325687578 1.4191668063434513 255 255 255
0.4993086645198339 0.2501139764625597 1.4779684860416733 255 255 255
0.4989530630756782 0.3204908762581054 1.5316190307299014 255 255 255
-0.2465451337725826 0.3814163795327445 1.9388402359299448 255 255 255
0.5219321485921129 0.3962855252398010 1.5822841589751500 255 255 255
-0.2577914310816087 0.4759157098972908 2.0031404787007645 255 255 255
-0.0691864973917653 -0.1273931952633234 1.4277465814696022 255 255 255
0.2823274241860432 -0.0199929958429112 1.3477049393785698 255 255 255
-0.0978157272887152 -0.2907573104120944 1.3031236921809253 255 255 255
0.4148747035067863 -0.2615026340915700 1.0724596507531263 255 255 255
0.1439643129405204 0.1511543288487484 1.5530373431115718 255 255 255
0.5269370057311118 0.3767490056306513 1.5385794760308062 255 255 255
0.5772743112535608 0.6558994823015247 1.7876608481141574 255 255 255
-0.1923844699827211 0.8196434248766008 2.2761777458330084 255 255 255
0.4806771968982586 0.7581899638432921 1.8767988605155876 255 255 255
0.1489822311744531 -0.0716962406529191 1.3739383176570774 255 255 255
0.4062799981609402 -0.1900806946362588 1.1350295611056680 255 255 255
0.4399805097711766 -0.0474925369275016 1.2502974413390624 255 255 255
0.4411517323332603 0.0087651399824495 1.2640587344864684 255 255 255
-0.0882732355559881 0.7708806196517770 2.8265521397222528 255 255 255
0.4734675260263295 0.0727565652341933 1.3610776029487575 255 255 255
0.6157012826133288 -1.0029755475568773 1.7512488595427045 255 255 255
-0.1792068801649673 -1.0513845279506526 2.0292447239752995 255 255 255
-0.2088444530744269 -1.0069888602770702 1.9595682896638467 255 255 255
0.1498279368742681 -0.9773378723392963 1.8465475380117748 255 255 255
0.7168997534037906 -0.9473064616872096 1.6909155336230688 255 255 255
0.4507295874049149 -0.4996785865953868 1.1136332003129183 255 255 255
-0.2396661038154821 -0.4376691583886418 1.2018192263618372 255 255 255
0.5320074907155536 -0.5985934756881814 1.4409093464837017 255 255 255
-0.0275251366495252 -0.4127956865421057 1.1315459546742941 255 255 255
-0.2998836872682982 -0.4196526526034061 1.2385532276192182 255 255 255
0.5504329808148096 -0.5448875812115093 1.4175085127903717 255 255 255
0.7369771963780778 -0.6766597113410722 1.7098455872342049 255 255 255
0.1778663673338592 -0.3634022717687184 1.0618903027015456 255 255 255
-0.3596670831663435 -0.6012196605763420 1.7501916056951083 255 255 255
-0.5218496248321927 -0.4182405703799250 1.3853388934646000 255 255 255
0.4012330991306925 -0.3054101946040957 1.0393710930207885 255 255 255
-0.3536396069891631 -0.3434875640312295 1.3941925620114788 255 255 255
-0.3689235751540241 -0.3338517540436254 1.3988334431221476 255 255 255
-0.3870247084126309 -0.3111258714834781 1.3855746765465442 255 255 255
-0.3099924136113428 -0.3036549903834812 1.3968533452464900 255 255 255
-0.1803828064553730 -0.2880585061475256 1.3417306790968633 255 255 255
-0.1143687826364523 -0.0677037692115520 1.5097593702943382 255 255 255
-0.3533350909819490 -0.0699254801526774 1.6240141970462680 255 255 255
0.2044861685646113 -0.0284593627092011 1.3798401896733246 255 255 255
-0.2772160667342414 -0.0616475322483945 1.5980487893625615 255 255 255
-0.1969917208737497 0.0019993675953191 1.5909786103481567 255 255 255
1.6077040450470292 0.2087840371294478 3.2014528118279948 255 255 255
-0.2019715443794672 0.1240294352009105 1.7055944786386164 255 255 255
-0.0976545276691740 0.3883472790298184 1.8751152000392004 255 255 255
-0.1971174506038817 0.6378054427657327 2.1447881487161240 255 255 255
-0.3019803538109925 0.7218666519435435 2.2727594760302656 255 255 255
0.7458673654292454 0.8660496118257253 2.0196767006591609 255 255 255
0.6151157503021949 0.9220815985471909 1.9528949406958613 255 255 255
-0.0657367113376885 1.0172641008848515 2.4175456059059925 255 255 255
0.3979531054073640 1.1405299290261173 2.2799700505818752 255 255 255
-0.2165320139163556 -1.0497989799767375 1.9839781950474400 255 255 255
0.3796839863752908 -1.0102375213719288 1.8117931334283668 255 255 255
-0.1599850714727671 -1.0580314737291632 2.0107730526123122 255 255 255
0.7234384871022321 -0.9758901096396961 1.6785972708203118 255 255 255
0.3156115695982082 -1.0108207694818905 1.8477306676010326 255 255 255
0.6184872333552009 -0.9728230406197915 1.7948296982369545 255 255 255
-0.4038920484749633 -0.7396094512437630 1.6288720138293868 255 255 255
0.3091969470157805 -0.8676484958583403 1.8434179772982850 255 255 255
0.6197954839095416 -0.7813349773702640 1.6459006071679383 255 255 255
0.5747544919674361 -0.7104447580881308 1.5574753951215961 255 255 255
0.5289011792444374 -0.6284857689524870 1.4488982908972350 255 255 255
0.4939246587351747 -0.5279376869034582 1.2294334738534616 255 255 255
0.4871792963564694 -0.5185076745906958 1.2388338176622860 255 255 255
0.5677904922815529 -0.7571270807059620 1.8009584019220828 255 255 255
0.3747022804900553 -0.3729552500284639 0.9598458769653977 255 255 255
-0.2426387747851350 -0.4127060600537250 1.2178186820950745 255 255 255
0.1813311621564928 -0.3615827746676015 1.0704719459756831 255 255 255
-0.2710543462695942 -0.2913698813606174 1.3674740963641785 255 255 255
-0.2644508921608795 -0.2493555007220598 1.4027444984093860 255 255 255
-0.3556043838701739 -0.2509742077580910 1.4658163806341897 255 255 255
-0.3464337912112145 -0.2418763898113250 1.4653335661270095 255 255 255
-0.1798102134359132 -0.2229466541281717 1.3998055848521442 255 255 255
-0.3523231757229643 -0.2333378524693863 1.4791087646672931 255 255 255
-0.2689451607960578 -0.2125621496438745 1.4404092379938724 255 255 255
0.2616129722803716 -0.1675055465161344 1.2442300056266693 255 255 255
0.3514756273776163 -0.1609136931804317 1.2253924696356062 255 255 255
-0.0563939111596294 -0.1589338281971917 1.4133164438727341 255 255 255
0.1541153567438736 -0.1330989907789580 1.3184567116976309 255 255 255
0.2457955018856742 -0.1180725609329795 1.2733206417909140 255 255 255
-0.3400396342320651 -0.1550214998033822 1.5376499405784676 255 255 255
0.3612145984103741 -0.0959577589926821 1.2466226398735092 255 255 255
0.0715478484038261 -0.1103002770117745 1.3838459603164530 255 255 255
-0.3560699679289705 -0.1006368652679908 1.5732818141819571 255 255 255
-0.2785131487983374 -0.0927958122738256 1.5437625932134820 255 255 255
-0.1709644579078606 -0.0676756339501889 1.5149948191140084 255 255 255
0.4306034276816009 -0.0182995246584934 1.2763550124271106 255 255 255
0.4462287712673003 -0.0139253949398283 1.2692581354015520 255 255 255
0.4530297670682202 -0.0017228757789871 1.2761671146224418 255 255 255
0.1658354741730221 -0.0079352449516887 1.4212557990491277 255 255 255
-0.1474361263260846 -0.0271863337616192 1.5538570918984078 255 255 255
0.1293816383345767 0.0032351183083245 1.4420155642250734 255 255 255
0.1240300280081758 0.0616859870887882 1.4901998570595301 255 255 255
-0.2250720820952683 0.0508426040523109 1.6605207464034102 255 255 255
0.1143016762422828 0.0878582514293487 1.5357157704397810 255 255 255
-0.1323567512625461 0.0774763419496553 1.6285260959241414 255 255 255
-0.2868614796909936 0.1201083018870777 1.7466900364301186 255 255 255
-0.2120375274237731 0.1288592252195041 1.7183638183608618 255 255 255
-0.3154501458711960 0.1394354739373941 1.7938225135552859 255 255 255
0.3418715534413046 0.2145261112464552 1.5374274928027933 255 255 255
-0.2078245480069854 0.3291336111330460 1.8877795196304525 255 255 255
0.1731088458531396 0.3690030220514120 1.7330855447654030 255 255 255
-0.0580092050903573 0.4888290038136347 1.9423685668934105 255 255 255
0.5605216734447467 0.6093386495846662 1.7521173991798875 255 255 255
0.5664983403329202 0.6731470172230871 1.8150825478445398 255 255 255
0.2128722863582961 0.7706212374620200 2.0586859558432451 255 255 255
0.2787261169947289 1.0156034819014328 2.1564858548530283 255 255 255
0.3043705612636884 -1.0211036366288226 1.8443952299996766 255 255 255
0.3364971402436698 -1.0089900472966147 1.8903004737865285 255 255 255
0.6219757123811949 -0.8451668889354744 1.7178463339684082 255 255 255
0.3780509427625285 -0.3013632582520317 1.0053901443128765 255 255 255
-0.2811566568413630 -0.1482419261126371 1.5138458690373922 255 255 255
0.2974195995248023 -0.0858173061787851 1.2944292050128960 255 255 255
-0.2485518088387830 0.3488085488199757 1.9225787033013884 255 255 255
0.6170154452536964 -0.7573186100817519 1.4992880165337095 255 255 255
0.5717825672686416 -0.6531573949745466 1.3671879638089912 255 255 255
-0.3454512486506105 -0.7225248728048701 1.7017491488598253 255 255 255
0.6186652934806576 -0.7833195896695937 1.6476162613901923 255 255 255
0.6047110219352732 -0.7944998142178257 1.6793360641086466 255 255 255
0.2814283513983876 -0.8503230535261610 1.8723527144569561 255 255 255
0.3222248873864723 -0.8172131322745696 1.8777547351949282 255 255 255
0.5263436514861404 -0.6296890324206164 1.4482292321628698 255 255 255
0.5841360965094111 -0.7316184465723889 1.6853211402829054 255 255 255
0.3298734931096572 -0.3627241618916610 0.9901460242873270 255 255 255
0.3646943751467351 -0.3598590994588009 0.9980827864097019 255 255 255
0.2472372999697257 -0.2736409114559439 1.1574350779610256 255 255 255
-0.3183883909030849 -0.3173270995427885 1.3925153223850462 255 255 255
-0.1916538709713915 -0.2788679421358700 1.3420609129868648 255 255 255
-0.2136794431392719 -0.2720352970592262 1.3568968528390144 255 255 255
-0.3487915730547910 -0.2770466750611815 1.4484808549670674 255 255 255
-0.2634451135747793 -0.2491010441133112 1.4035111467734174 255 255 255
0.4132615495646785 -0.1876293427694435 1.1340102931177878 255 255 255
-0.3568626492507416 -0.2512912356734531 1.4671208182873059 255 255 255
-0.2591023993479471 -0.2252936514979429 1.4192296991218853 255 255 255
-0.2055759556243872 -0.2204203833718729 1.3992896007406923 255 255 255
-0.3775634824743803 -0.2246076936243253 1.4950575593234809 255 255 255
0.3614205302796627 -0.1635711182813844 1.2387060465087529 255 255 255
-0.1686791610352061 -0.1594282625802459 1.3759252534261517 255 255 255
0.3674179836711176 -0.0979364367480231 1.2795407121015785 255 255 255
-0.2785152483728619 -0.0946743919106745 1.5437422744466773 255 255 255
0.0895508647636474 -0.0418336562389664 1.4374954092603520 255 255 255
-0.2357494969879221 -0.0625802614238791 1.5719885975839683 255 255 255
-0.2436362214964873 -0.0530770136246327 1.5857940885087221 255 255 255
0.3061884724490120 -0.0021679174968459 1.3631390954031914 255 255 255
0.1100402069478612 0.0880538138162927 1.5332148568044133 255 255 255
-0.4134827264385963 0.0932637980717405 1.7744849328400587 255 255 255
0.1311297868964214 0.1918940244514049 1.6209548201249007 255 255 255
-0.1871155358020777 0.2416165144700506 1.7914325882404292 255 255 255
-0.0510263777835158 0.3456296288121203 1.8249168540521090 255 255 255
0.5245211988078680 0.3837902943223197 1.5672102954091205 255 255 255
-0.1379937708613923 0.7202181388458664 2.1648451399656743 255 255 255
-0.2880530967471074 0.8091926683021562 2.3335602617362068 255 255 255
0.4008576368353083 1.0801926386673877 2.2302853291953522 255 255 255
0.7192326512085785 -0.9377532940774884 1.7489393213446505 255 255 255
0.5688350407779268 -0.7015930639346601 1.3508138816995086 255 255 255
0.5607421538655082 -0.8349174000115980 1.7364111736178209 255 255 255
0.5428884031906112 -0.6284270691690814 1.3465456272191325 255 255 255
0.5150922392842068 -0.7760814524088868 1.8284967193259902 255 255 255
0.3150130591645564 -0.3881229331359517 0.9927928981241507 255 255 255
0.3829556976374606 -0.2817318841131111 1.0794070967530387 255 255 255
0.2859793655605967 -0.1948661168098307 1.2097160276102625 255 255 255
-0.4764235404763608 -0.2466002579671669 1.5066047049286491 255 255 255
-0.3106928191147045 -0.1554839501231898 1.5239706122734193 255 255 255
0.0994528678377868 -0.1094948491769361 1.3673671459890571 255 255 255
0.4542802016653633 -0.0612692290177141 1.2389862604328461 255 255 255
0.1758195684939459 -0.0557815476883698 1.3587372696135986 255 255 255
0.1731360364227488 -0.0074506385849585 1.4565124618563665 255 255 255
-0.3310183536616824 -0.0376136792070587 1.6253155275276825 255 255 255
0.3214555591895003 0.0226719338625854 1.3721425957180173 255 255 255
-0.0674104430689182 0.1129422999758547 1.6244758142252893 255 255 255
0.1177540085059952 0.2332975615836744 1.5611171922023281 255 255 255
0.5039011189456906 0.3220182902438997 1.5404612267397804 255 255 255
0.1496171934716131 0.4367495472467331 1.7970483074300727 255 255 255
0.5394250482365450 0.5115541634388698 1.6783262784438548 255 255 255
0.2391459320327538 0.6733791276440799 1.9651051554935988 255 255 255
0.5469983935255698 0.9126510929944516 2.0319721188292021 255 255 255
0.6202953983705513 0.9368994146912790 1.9736965196484206 255 255 255
0.6299294352053160 0.9967663871359100 2.0600980724656779 255 255 255
0.4566717698073788 1.0121568674718198 2.1430994636428693 255 255 255
0.4220181996593411 -0.4392594072303757 1.2291823694454909 255 255 255
0.6341423376411157 0.9224667112400198 1.9486807625130638 255 255 255
-0.2101392961396202 -0.7915316940642576 1.8572994022377678 255 255 255
-0.3376952399911869 -0.3130889671025008 1.4023811220769149 255 255 255
0.5012108718274533 0.3019138005175552 1.5082657847353254 255 255 255
0.6037854947571333 0.6556419708516330 1.8123349076166591 255 255 255
0.3623176836941724 -0.0489701470166628 1.3074902987483270 255 255 255
0.4908160425204606 0.2290896337672839 1.4570763380908849 255 255 255
-0.5394845302289014 -0.4521260730186445 1.3524858131424369 255 255 255
0.3951571212029883 -0.2683724500935316 1.0784726748834998 255 255 255
0.4726532257714089 0.1561751362138504 1.4006917908776808 255 255 255
0.4553354791945705 0.1765895498338075 1.4361557094404356 255 255 255
0.5001239735462359 0.3339322656367911 1.5785336796570739 255 255 255
0.7206541749956488 -0.9508344910185205 1.6636356230588256 255 255 255
0.6176520445174205 -0.7830687628776793 1.4733256434330642 255 255 255
0.5619147801750373 -0.7070806491306794 1.3542948095098346 255 255 255
0.6442262491516573 -0.7972896270700485 1.5240904372015223 255 255 255
0.5598757731483595 -0.6665919517838470 1.3115264559892199 255 255 255
0.5161713685434179 -0.6242634165847996 1.2578541949304025 255 255 255
0.4910564085111258 -0.5130636353814424 1.2035421974074971 255 255 255
0.4372618756243511 -0.4468267675319924 1.0772896310665150 255 255 255
0.4808637817355077 -0.5164470469511500 1.2344723639862138 255 255 255
-0.3852365541702580 -0.4450769102537107 1.2525023500095545 255 255 255
-0.5213391309158419 -0.4611962691265847 1.3323515502456513 255 255 255
-0.3703216543890926 -0.5094175609054334 1.4712849029674584 255 255 255
0.3275134094808813 -0.3504194167716003 1.0700750783070083 255 255 255
0.2936375858171942 -0.2697188167880373 1.1342713370409285 255 255 255
-0.4924706540009449 -0.3818026171248583 1.4044059106728568 255 255 255
0.0521345967388172 -0.2967157634155662 1.2304265850792291 255 255 255
-0.1225137998061268 -0.3005163941900233 1.3131321450078932 255 255 255
-0.3241267355656463 -0.3130501980128848 1.3999882619877830 255 255 255
0.2841560585424663 -0.1171387496745371 1.2690640142632752 255 255 255
-0.2566026493981255 -0.1797602577518376 1.4772884940763831 255 255 255
0.1115223315496543 -0.1243629301028024 1.3547320048253368 255 255 255
-0.2456361290713804 -0.1391495599386351 1.4857730117758674 255 255 255
0.1253288572843911 -0.0237932076000206 1.4268730249289359 255 255 255
-0.2428689580300496 -0.0716882568060264 1.5675059175944170 255 255 255
-0.3185794962184207 -0.0796980147353263 1.5944603739219083 255 255 255
0.4674943106023264 0.0764227513575866 1.3324340038495706 255 255 255
0.2225457988154914 0.0614150370533483 1.4427338734666906 255 255 255
-0.0227164267897990 0.0442270161555731 1.5558216428367722 255 255 255
-0.2699923875426808 0.0341277286948835 1.6580587752175644 255 255 255
0.1582274723538717 0.3140640568064921 1.6899984018159913 255 255 255
-0.1157412060495062 0.2914464904947431 1.8007929495639452 255 255 255
0.0367049570225113 0.3784129368432883 1.8133233386575398 255 255 255
-0.2844864652186647 0.3430122283538299 1.9318978010877430 255 255 255
-0.2977486432754070 0.7032127669725119 2.2750661289397325 255 255 255
-0.1031246833220223 0.7305883533793924 2.1673210824570219 255 255 255
0.5015444530262674 1.1033726535371251 2.2664682725147829 255 255 255
0.4603728268159261 1.1493664091623157 2.2615742530674838 255 255 255
0.6178605312119085 -0.9783780584363484 1.7303708899385102 255 255 255
0.4946166425380820 -0.5684666566176273 1.1899189614600569 255 255 255
0.6527024913724127 -0.8263719204153990 1.6959251507021147 255 255 255
0.6129532115333909 -0.7639731797993354 1.6129361229581569 255 255 255
0.4553859611494095 -0.4992505068293636 1.1254476579913035 255 255 255
0.1383674417458511 -0.8640097753976472 1.9283332857012263 255 255 255
-0.0043376344481600 -0.8800808347285689 1.9835694785768891 255 255 255
0.5612665281988023 -0.6726507772602701 1.5336281065592381 255 255 255
0.4175068737341858 -0.4401517034830851 1.0605029921620250 255 255 255
0.5285687947246913 -0.6565844331842285 1.5735181454336669 255 255 255
-0.2130367820900771 -0.3969338223674282 1.2311829171707109 255 255 255
0.3443063897603067 -0.1776021864524907 1.2103336020326907 255 255 255
-0.3356590885554451 -0.2493246129446278 1.4616962371108093 255 255 255
-0.2509329935807019 -0.2349366047209316 1.4087235358623591 255 255 255
0.3216459007576519 -0.1601254595060728 1.2218430138678236 255 255 255
-0.3349277180102828 -0.2313350194453974 1.4718497835703079 255 255 255
-0.3118509604519173 -0.2294762379603441 1.4645183269149289 255 255 255
-0.3743398233664266 -0.2353288610728628 1.4871589081372392 255 255 255
-0.3430756899157004 -0.2246849366097838 1.4795373884686107 255 255 255
-0.0606350754731846 -0.1791627741302552 1.3668341309208625 255 255 255
-0.3204156991208593 -0.1698550647794241 1.5257674819041513 255 255 255
-0.2049838272455062 -0.1452021226897608 1.4668973644070782 255 255 255
-0.0232761205484948 -0.0520221388836727 1.4687928692397287 255 255 255
-0.2401417197938516 -0.0539552140560482 1.5857571802938466 255 255 255
-0.0137532020160531 0.0636303478501653 1.5679107391772806 255 255 255
0.1168464798339128 0.0786491376111208 1.5179766254737013 255 255 255
0.1274649783446478 0.1657620813901621 1.5941299086635112 255 255 255
0.1612919491327569 0.1806299149586814 1.5752310426710785 255 255 255
0.0016314204749399 0.1760693007575966 1.6635186456603783 255 255 255
-0.0766480025845460 0.1664279274617896 1.6875949811538682 255 255 255
-0.3187508859437851 0.1398882627392464 1.7628971096974455 255 255 255
-0.2042071340849567 0.2097918204276077 1.7732146747303332 255 255 255
-0.0215596773892939 0.2882112587629591 1.7503261231143998 255 255 255
-0.1131943562896680 0.3293796538541933 1.8285185976217662 255 255 255
-0.0069552819929967 0.4530894866085204 1.8877658221783844 255 255 255
0.6363307058083052 0.9773967056742663 2.0104350693325230 255 255 255
0.3963992599637365 1.0774824791583555 2.2259120319496617 255 255 255
0.0819298434080658 -1.0270397248589909 1.9374098651791840 255 255 255
0.2684386858605592 -0.1577836629588063 1.2407300741809948 255 255 255
0.0698745506246325 0.3164066041920996 1.7326348124416100 255 255 255
-0.0472122892354943 -1.0556043231328722 1.9753059948107037 255 255 255
-0.0412235886545507 -1.0407723555126682 1.9978543665177670 255 255 255
0.6481736902103887 -0.7809857826807804 1.5473274271122397 255 255 255
0.6467967685871443 -0.8249955857515161 1.6889144902049651 255 255 255
0.4878190143341108 -0.5603430208940172 1.1853085692404415 255 255 255
0.6108612773567756 -0.7648074882175271 1.6096606020986881 255 255 255
0.1408331578488973 -0.8660491287015577 1.9258003090933491 255 255 255
0.4672270549692996 -0.4738747673292778 1.1641418688520346 255 255 255
0.3937996681277554 -0.3839957583992017 0.9790396742483196 255 255 255
-0.2556084483102368 -0.4276477653206154 1.2103132455683197 255 255 255
0.3633088697225695 -0.3423395286953799 0.9865872653878593 255 255 255
0.3859751279761134 -0.3359812950525551 0.9880561361555387 255 255 255
-0.2298416448451279 -0.4036461879459665 1.2227612733612165 255 255 255
-0.4169182809080223 -0.4206876936492430 1.3055924108877899 255 255 255
-0.1279277756587618 -0.3698282580318377 1.1920199852792450 255 255 255
0.3916447279769777 -0.2974466193563146 1.0532069753985560 255 255 255
-0.4920283449603531 -0.3965050731767246 1.3988570132059142 255 255 255
0.3444036310292198 -0.2448377848267791 1.1759209867672791 255 255 255
-0.4857529793896660 -0.3285022815166849 1.4496613226735988 255 255 255
0.4122203921518244 -0.2023438064963070 1.1160627850234921 255 255 255
-0.0990617336645827 -0.2154775490951680 1.3779249200510746 255 255 255
-0.0547190374534008 -0.2090141421439087 1.4038450425664628 255 255 255
-0.3849877639288550 -0.2294088618714383 1.4488365654392741 255 255 255
-0.0580216124808608 -0.1940314103562417 1.3677081491786574 255 255 255
-0.3447979724306958 -0.2243324053505900 1.4762488837860106 255 255 255
0.3463279871566005 -0.0806409966962620 1.2892041409218100 255 255 255
0.0292766140537815 -0.0979065627633533 1.3946072771635407 255 255 255
0.3635261218300532 -0.0219117125628668 1.2965794126652423 255 255 255
-0.3889123980169904 -0.1177597303784339 1.5801409106437276 255 255 255
-0.2257673534625626 -0.0734348780376422 1.5495871163703594 255 255 255
0.1015247237109023 -0.0246115886776684 1.4443832815508628 255 255 255
-0.1223603243400753 0.0197232720391487 1.5673529672880377 255 255 255
-0.2272271733053755 0.0513332895047901 1.6625547006340664 255 255 255
0.4735113080295470 0.1541751477935853 1.4070896297278281 255 255 255
-0.0520912356089340 0.0880094826408180 1.6009157321989349 255 255 255
0.1245891163059625 0.1638709153636366 1.5952430855150439 255 255 255
-0.0533455359637660 0.1878309851471129 1.6812370325201265 255 255 255
-0.1084836345335809 0.2074541813991990 1.7260293881287652 255 255 255
-0.0176329074526880 0.2903454643978316 1.7519968070633141 255 255 255
0.5423324995913816 0.4706029620235377 1.6448077082883970 255 255 255
-0.0100473125213725 0.4188634165792315 1.8628924459075620 255 255 255
0.6043062622910753 0.7480738950780363 1.8469186854636774 255 255 255
0.6030864876394233 1.1456723719219966 2.1766553444556394 255 255 255
0.0035240593061258 -0.8862501035359641 1.9700130359186940 255 255 255
0.4297023597716141 -0.4516051584050969 1.0618220959727820 255 255 255
0.4648046514033553 -0.4955327045160978 1.1527878474418998 255 255 255
-0.2566468430919313 -0.4256822755740970 1.2099498199700376 255 255 255
0.3160870477041628 -0.3370947268324838 1.0131138105545321 255 255 255
-0.0841318806254621 -0.2376298011405467 1.3518976296846548 255 255 255
0.3503805988850708 -0.1512758975992914 1.2085260261494053 255 255 255
-0.4553315639138624 -0.2379237110287811 1.5457191126852159 255 255 255
0.3610440817270746 -0.1019715818513705 1.2458840164758840 255 255 255
-0.2586115651518819 0.2785201667790087 1.8585315726334350 255 255 255
0.0079100040288296 0.4060802735339610 1.8421441080759493 255 255 255
0.6036442738512413 0.7438280522527982 1.8375289429138988 255 255 255
0.4626898921052351 -0.5079802825594386 1.1243855439357491 255 255 255
0.4409843526835502 -0.0668160275158818 1.2208987265813249 255 255 255
0.4538471599600307 -0.4897689550719653 1.0830265995346844 255 255 255
-0.1343276472596919 -0.2899854292693766 1.3251755211804443 255 255 255
0.5261495909222482 0.4022340494306533 1.5920019497561917 255 255 255
0.5354692060900987 0.4586924899977078 1.6327315758149723 255 255 255
0.0197292613165647 0.4041704867079030 1.8137253968139380 255 255 255
-0.1428238628896814 -0.1018496552402592 1.4717551913661353 255 255 255
0.4999406755375446 0.1540418614308603 1.3894394778302441 255 255 255
0.4594084173793362 -1.0792183346890099 1.9184890120678375 255 255 255
0.2992196914130822 -0.9926557109473215 1.7979573182446122 255 255 255
0.5718541985126571 -0.9741438884599205 1.7585809834679491 255 255 255
0.4335553558426296 -0.9002072711376606 1.6698154148931716 255 255 255
0.5577357438247219 -0.9609602454344994 1.7645635734923957 255 255 255
-0.0352602149159378 -1.0602503233326046 2.0528356128310783 255 255 255
0.5157909150924134 -0.6188406205389256 1.2446745644074593 255 255 255
0.6323730037255260 -0.7860629929669338 1.5448748746569763 255 255 255
0.5540612248403356 -0.6638452263739625 1.3348200200116249 255 255 255
0.5416085705313023 -0.6268405812156148 1.2940060966746580 255 255 255
0.5438788530814804 -0.6220355099923154 1.2993488043486163 255 255 255
0.5340530679488236 -0.6135589038029523 1.2689381238410400 255 255 255
0.6175212303470161 -0.7796552525657710 1.6418539135307242 255 255 255
0.4359833653027074 -0.4730424764285930 1.0828112361780686 255 255 255
0.4240439765604052 -0.4609207912103801 1.0678537840664726 255 255 255
0.4629029420519544 -0.4871332083513522 1.1252497372364658 255 255 255
0.4628135144189081 -0.4890391327919392 1.1342101603542520 255 255 255
0.4939868937780396 -0.5249890624083298 1.2272278579276499 255 255 255
0.4850189080610043 -0.5619618907903816 1.3412421719297889 255 255 255
0.4122962582616907 -0.4338579773247027 1.0778453605197278 255 255 255
0.4253079267906816 -0.4235791813408314 1.0586546828701202 255 255 255
0.4718749725908964 -0.5398358186876431 1.3148318224910849 255 255 255
0.1491393608105263 -0.3868411594162655 1.0433226452501234 255 255 255
0.3674055912136627 -0.3533606900659720 0.9743282254579615 255 255 255
0.1271342090321710 -0.3967553033463505 1.1194703250448086 255 255 255
-0.4029579359003845 -0.4470057704799388 1.2586379125028100 255 255 255
-0.1137546445864075 -0.3138728421745194 1.2920985427625844 255 255 255
0.1065434470570548 -0.2136513749143341 1.2746655867115244 255 255 255
-0.1372196464791604 -0.2406477537282182 1.3696097272120324 255 255 255
-0.2752458001015441 -0.2557195497634437 1.4252878453694180 255 255 255
-0.3421936654247961 -0.2626674738677124 1.4487789066813530 255 255 255
-0.3374326138637311 -0.2350733871734025 1.4699075088204623 255 255 255
-0.3502880811327183 -0.2364075714104021 1.4765582102881236 255 255 255
0.4538039133432648 0.0281521756541938 1.2973282069064442 255 255 255
-0.2386120630676061 -0.0572610618762917 1.5826187613157892 255 255 255
-0.0755221513000066 0.1453734283912507 1.6766739927316223 255 255 255
0.5522503441508064 0.5187120542441761 1.6829389368453889 255 255 255
0.6024571595821371 0.7525488643909259 1.8510107644593745 255 255 255
0.6068507085165002 0.8178154889904867 1.9131584364610532 255 255 255
0.6172942789265896 1.1685872587318027 2.2063091736047653 255 255 255
0.3417472872949008 -0.9958213727806131 1.8141693981698848 255 255 255
-0.0059371368930008 -1.0532432713575632 1.9627076251754580 255 255 255
0.4931907825930502 -0.5564105841574998 1.1783030304911044 255 255 255
-0.0049463571037727 -0.9316788510610508 1.9768168492670952 255 255 255
0.5337212429794480 -0.6714580697550707 1.5456865870496594 255 255 255
0.4688113146238244 -0.4737820036903422 1.1648408999773849 255 255 255
0.3956423364361452 -0.2741010433946621 1.0774606587274831 255 255 255
-0.1112870552530989 -0.3162742805422045 1.3115321592008033 255 255 255
0.1329321091477027 -0.2633606531216537 1.2460331976738575 255 255 255
-0.0596188805583484 -0.2678242843303221 1.2853385034490161 255 255 255
0.4111266329501575 -0.1909398709300335 1.1367335264990457 255 255 255
-0.2663436164592385 -0.2671617780049700 1.3892986622406251 255 255 255
-0.2738335802565075 -0.2602431265620986 1.4298783449940409 255 255 255
-0.0654607919981984 -0.2218025708317877 1.3663434775829959 255 255 255
0.2258559931553918 -0.1565362908977974 1.2421760122000691 255 255 255
-0.2703798412607679 -0.2434683745013236 1.4432840183198623 255 255 255
-0.2708600738888149 -0.2253600383667411 1.4524918620127956 255 255 255
0.1629251356416415 -0.1191316055876521 1.3596329649306300 255 255 255
-0.3030852595577945 -0.1664987811760968 1.5107217151339412 255 255 255
-0.1347686000675827 -0.1332746468854019 1.4599342167720712 255 255 255
-0.3198155952238501 -0.1535166928853900 1.5321572657542331 255 255 255
-0.0371808178067461 -0.0558171754256182 1.4898519784086020 255 255 255
-0.1559988171418567 -0.0548570674170710 1.5318248977390638 255 255 255
0.1428273266224183 0.0795801074414290 1.4990947675074855 255 255 255
-0.0515700757762614 0.0696237120736223 1.5934522412981356 255 255 255
-0.0837160951499420 0.0680497465581271 1.6520335762205001 255 255 255
0.4714264992973711 0.2232574272940434 1.4667806362216678 255 255 255
0.4920421408172322 0.2771704563373560 1.4984059980641096 255 255 255
-0.0382912326115150 0.1872647168310682 1.6741232405307649 255 255 255
0.5094929813525653 0.4123937794088164 1.6122027528357847 255 255 255
0.1060766327028073 0.3926835815525056 1.7782446244851329 255 255 255
-0.0121337121178584 0.4202720791688934 1.8618777434815286 255 255 255
0.0624539534039030 0.9536362465808992 2.2725069177562887 255 255 255
0.6988223150115349 -0.9692308796099489 1.6753479157396853 255 255 255
0.0133498967762289 -1.0345272584555658 1.9468333237209403 255 255 255
0.6400000340757734 -0.9603512859899914 1.7371969657829274 255 255 255
0.5518318063435856 -0.9564217221208153 1.7751495534191264 255 255 255
0.5493434686168293 -0.6583345036685460 1.2893116614185640 255 255 255
0.4369247724060159 -0.4708608696324781 1.0825681575654436 255 255 255
-0.0494176512540101 -0.3878628827667001 1.1444149431081538 255 255 255
0.5079407636457240 0.6095817171785360 1.7758955887472068 255 255 255
0.2175814185607550 -0.9829872732377751 1.9011839556590644 255 255 255
0.5712537039329355 -0.7009072864517893 1.3501865461010603 255 255 255
0.4631193875926396 -0.5096758224258107 1.1089335190676390 255 255 255
0.4862986693423350 -0.5921763315580182 1.2669672567329977 255 255 255
0.4255069198928565 -0.4464181515747949 1.0353108453685924 255 255 255
0.3973240070865938 -0.4017047211659612 0.9848545304442222 255 255 255
0.5309608747809449 -0.6577348233714044 1.5552824950014994 255 255 255
-0.4112727773626821 -0.4443033215227257 1.2711288610484845 255 255 255
0.1106979405332664 -0.3610591070521875 1.0874875947412477 255 255 255
0.3921590087854767 -0.2812009929982811 1.0623687289693073 255 255 255
0.3327582259368098 -0.2421035528233149 1.1650202985425335 255 255 255
-0.2016347951214170 -0.2590841802667690 1.3646172608619698 255 255 255
-0.2048699021788463 -0.2484122321362173 1.3637968784930301 255 255 255
-0.3353838292294604 -0.2489729212934861 1.4587265735596091 255 255 255
0.0237983314151506 -0.1802811992640203 1.3186609943353922 255 255 255
-0.3425177983623584 -0.1547964044341610 1.5387487070193799 255 255 255
-0.3636567145955922 -0.1422650949166985 1.5444071331166755 255 255 255
0.4547672899497814 0.0224090586015049 1.3037623823887421 255 255 255
0.2241161352122276 0.0961314765809007 1.4695061449443685 255 255 255
0.1424962871062654 0.1470550325476445 1.5520537832145553 255 255 255
-0.0649105525555527 0.1062772919813986 1.6218943598461273 255 255 255
-0.0655041939329308 0.1216827513073575 1.6296394636358329 255 255 255
-0.2136657784133451 0.1272318873970251 1.7211727047796614 255 255 255
-0.1890066855132950 0.2578163083885094 1.8282269167010696 255 255 255
0.5493009713755583 0.4307508755211709 1.6183475151153637 255 255 255
0.0040127277641204 0.5004652427829015 1.9205939869106459 255 255 255
0.2592538229572270 0.7276180995541139 1.9804631985292147 255 255 255
0.6606383423862354 0.9988442584756907 2.0379626501739132 255 255 255
0.6693032689008049 1.1634490701381708 2.1781641998529437 255 255 255
0.6232414946134703 -0.7850334141363060 1.4485606432507510 255 255 255
0.5422164381905095 -0.6384475077406209 1.4624541914912692 255 255 255
0.3812045458561784 -0.3952981411830390 0.9960539097360410 255 255 255
-0.3042357923537296 -0.3066263197862860 1.3858166074648501 255 255 255
0.2201163172183627 -0.0794753325316323 1.3139986195078848 255 255 255
-0.1473437879686479 -0.0845664230661956 1.4920776080025320 255 255 255
-0.0829058872081290 0.0144787910311457 1.5477443898109906 255 255 255
-0.1949606079465358 0.1117007420852603 1.6855342119513992 255 255 255
0.5515436714661917 0.4743163452437216 1.6549063359673397 255 255 255
-0.2937342279109725 0.2801422041222077 1.8600582124858676 255 255 255
0.4242929535270115 0.5873008632868846 1.7952690304417054 255 255 255
0.6127202398384846 1.1435477560361225 2.1789106458607410 255 255 255
-0.5047952837091338 -0.4409698479894991 1.3664683857177478 255 255 255
0.1113600277488160 -0.0037183127550151 1.4439970788803294 255 255 255
0.5980036236747033 -0.7447964865099905 1.7033829217054262 255 255 255
0.4892863564059535 0.1657957597254742 1.3846247607989461 255 255 255
0.5122455035926130 0.3298848081209220 1.5364120440021090 255 255 255
0.6442248268292161 1.0394413577230779 2.0764648196125677 255 255 255
0.3810388277564698 -0.2889290373300977 1.0881779898457680 255 255 255
0.4342837395565233 -0.0888586701518275 1.2264348193752816 255 255 255
0.1003988866393950 -1.0407672678039903 1.9226696388054076 255 255 255
0.5259702621905482 -0.9568617404716846 1.7339820627248175 255 255 255
0.5304620092681489 -0.9777411287303543 1.7714663876588226 255 255 255
0.6122629911738784 -0.7887975962430680 1.4412449819852888 255 255 255
0.3004791769661864 -1.0154276532831927 1.8522246502146389 255 255 255
0.6329480577394335 -0.8125581870097189 1.4767431006509426 255 255 255
0.7407833990011490 -0.9451225982310292 1.7037748269323938 255 255 255
0.5800230089647940 -0.9620003657635721 1.7594175147134337 255 255 255
0.7418245987240510 -0.8848371246297972 1.6016220998506299 255 255 255
0.5869358076840427 -0.7462799352538392 1.3930942771414454 255 255 255
0.3535773794356509 -1.0101127874322064 1.8933783038169465 255 255 255
0.6865512969977736 -0.8554852551467587 1.6093216541776769 255 255 255
0.6603628008801792 -0.8271034703760183 1.5614076059303450 255 255 255
0.5873712834943490 -0.7450993641471122 1.5509450836854626 255 255 255
0.5414489237755156 -0.6088582292955196 1.2960749420008231 255 255 255
0.5045089369961033 -0.5613975659230483 1.2179079759599425 255 255 255
0.5471192090079384 -0.6083193799392106 1.3102395241545910 255 255 255
0.5566326760551163 -0.6515463885473318 1.3881509802385406 255 255 255
0.5703600913952300 -0.6045149495265747 1.2983670360030786 255 255 255
0.5530788836831135 -0.6208000916578520 1.3429629288535807 255 255 255
0.4975926604686993 -0.5474116080511813 1.2056540317739755 255 255 255
-0.4377657635981969 -0.6713492882629808 1.5431618881176803 255 255 255
0.4708100176865084 -0.5084944382203367 1.1585878485209475 255 255 255
-0.3454202593940465 -0.7750657310654958 1.7467769289203261 255 255 255
0.4711926954291492 -0.4843153592609970 1.1514402406498485 255 255 255
0.5226576550959479 -0.6523955378391619 1.5233753579725224 255 255 255
0.5843432145049974 -0.7179025597222761 1.6596292879062844 255 255 255
0.5036807854655478 -0.5807635928545878 1.4091696199803678 255 255 255
0.4653550298220033 -0.4355594562592855 1.1205103873887667 255 255 255
-0.3338209355765365 -0.4191314510010873 1.2623781416200970 255 255 255
0.3973914451316238 -0.2690653335033549 1.0659349701943981 255 255 255
0.0829689857118083 -0.2970895027988085 1.2252085785231976 255 255 255
0.4038235884328802 -0.2078391907878765 1.1178021988111424 255 255 255
0.1000551608156270 -0.1961986446081095 1.2773278139984261 255 255 255
-0.2111248063787095 -0.2571530743494460 1.3712999030552657 255 255 255
-0.3262714825389441 -0.2680174857639691 1.4826263029942874 255 255 255
-0.3737327320126909 -0.2447993186660011 1.4237971625748145 255 255 255
-0.2611969130988108 -0.1842766942286498 1.4593714492852072 255 255 255
-0.2957108497993737 -0.1829728649624021 1.4942269544384708 255 255 255
0.4721386826753928 0.0065920319409052 1.3029566975912434 255 255 255
-0.4508562243818938 -0.1584315699974099 1.5866809647002691 255 255 255
-0.3185911645136663 -0.0890410588693087 1.5902870680886068 255 255 255
0.4236533489199577 0.5876494619500470 1.7936171213659211 255 255 255
0.4888602364151495 0.8015895239894064 1.9487193419855373 255 255 255
0.1973794224774768 -1.0310793342691174 1.8843155039524948 255 255 255
-0.2110175161237535 -1.0673732422585829 2.0121110560268392 255 255 255
0.6173850883506552 -0.9539434271755107 1.7569128591927816 255 255 255
0.5135839523096948 -0.6071308176236698 1.2506578233035697 255 255 255
0.0822909956022519 -0.9023855713620963 1.9291492503188610 255 255 255
0.5731024320620968 -0.7372437937638843 1.6046447449279455 255 255 255
0.4033447471125928 -0.3879689309066841 0.9819587861992551 255 255 255
0.3517182401331844 -0.3667147358184720 0.9689839682757910 255 255 255
0.3677154661228546 -0.3433443502903495 0.9868695629502118 255 255 255
-0.3476459806845611 -0.4062405748813056 1.2653205206820006 255 255 255
0.1287365948890766 -0.2828987847641784 1.2362495596300498 255 255 255
0.0672672300945134 -0.2042952334175440 1.2953779819763831 255 255 255
-0.1298840350557728 -0.2100116623303626 1.3921104322202895 255 255 255
-0.3381749103347866 -0.2490570161578036 1.4581409899362843 255 255 255
-0.1807335971024635 -0.2028692095736275 1.3997502643184419 255 255 255
-0.3021901292934288 -0.2210839880369417 1.4641102731012001 255 255 255
-0.0857193965886509 -0.1523490600351725 1.4271409903100150 255 255 255
-0.3355348628059627 -0.1787214699179045 1.5133950802843739 255 255 255
-0.2642135753936898 0.1482586772365426 1.7462757558398465 255 255 255
-0.0682052623569263 0.4261258061596784 1.8927311530880218 255 255 255
-0.0713563287840571 0.4928043183191094 1.9493430870144917 255 255 255
0.6268605786207999 0.8607373004255265 1.9321170535170964 255 255 255
-0.2713633449982584 0.7454469643977539 2.3244515412904221 255 255 255
0.7229042298659820 -0.9496556840980332 1.6619007548254423 255 255 255
0.5580285411282553 -0.9842946805500699 1.7531018490996537 255 255 255
0.5871921105302960 -0.9704698534961693 1.7469208092022370 255 255 255
0.2127966897177799 -1.0035815514434030 1.9020091623889956 255 255 255
0.0151019183733871 -1.0154893542179027 1.9593976455935467 255 255 255
0.6166744078604509 -0.7353964284396151 1.4420154242612995 255 255 255
0.5974257863413399 -0.6963529538367599 1.3985981883752707 255 255 255
0.5855384313658547 -0.6911630284637180 1.4046570730842891 255 255 255
0.4703134481001587 -0.4859562322679434 1.1526776770460287 255 255 255
-0.1851132871233681 -0.3227039664791307 2.3625539968596456 255 255 255
0.2533925928426690 -0.0112085756917920 1.3697777287098010 255 255 255
0.6307721068160141 0.9842791075511661 2.0412389930408796 255 255 255
0.2600889834798963 1.1292355080449106 2.3288416308635433 255 255 255
-0.0617455359982188 -1.0431163370064829 2.0002818281207269 255 255 255
-0.2340864119721680 -1.0149759722129197 2.0140208440661223 255 255 255
0.5503821941614078 -0.6653709759173010 1.3072601000836874 255 255 255
0.4661529722929352 -0.5486015261106871 1.1987299562181235 255 255 255
0.5458442413409017 -0.6233810437316389 1.3442138011790767 255 255 255
0.4920435589959382 -0.5109821832938550 1.1406557266422919 255 255 255
0.5822888139705427 -0.7369948736824830 1.6065788122133515 255 255 255
0.4962758332116479 -0.5231855236027982 1.2108317941609563 255 255 255
0.5336880091846261 -0.6711102576128720 1.5483866014469498 255 255 255
0.5343908883756185 -0.6396677022853398 1.5361694332365206 255 255 255
0.4113720301450634 -0.2022383389861915 1.1155516234548077 255 255 255
0.3666408430480743 -0.1845287359048216 1.1775478736564153 255 255 255
-0.2733097736561714 -0.2434945016313161 1.4424297420042187 255 255 255
0.3612639922822467 -0.1071214097844631 1.2458155662424204 255 255 255
-0.3689499670219846 0.0052936527160352 1.6809516073783854 255 255 255
0.0771827883826077 0.2055418594528540 1.6362185663403856 255 255 255
0.5279316576900754 0.4212265789682448 1.6332056823053165 255 255 255
0.1454929704803192 0.4428996910179421 1.7989044822685543 255 255 255
0.3988090021091182 0.5147401522225863 1.5513259477623791 255 255 255
-0.3735395338047751 0.2824128710914645 1.9217599279113320 255 255 255
0.6506718903378399 0.9047400133733419 1.9723784833777174 255 255 255
0.6121834596612814 0.9317260032470926 1.9594319829859117 255 255 255
0.2709685868524048 0.9693059571053197 2.1967078653895555 255 255 255
0.4024588048417908 1.1393145512446026 2.2845016095029358 255 255 255
0.6352801776416754 -0.8239757305939115 1.6740799641135311 255 255 255
0.6115827972073973 -0.7678627154782296 1.6050542512312802 255 255 255
0.5461189102295911 -0.6555405671903092 1.5027843441616167 255 255 255
0.4111627370331945 -0.4411865022430868 1.1079150215075897 255 255 255
0.5413028415219543 -0.6414745130386734 1.5335700160549379 255 255 255
-0.4000044328626728 -0.7167334122158628 1.7145251221159938 255 255 255
0.3676792474411039 -0.3431308689051376 0.9907845153792483 255 255 255
0.1405496075886816 -0.1072929858203500 1.3530202977849299 255 255 255
0.4075433188702782 0.0333417775746490 1.3449002101813345 255 255 255
-0.3615421822267351 0.4867176892144833 2.0685172855501452 255 255 255
-0.2107589767057587 0.5922612537491032 2.1126465773012706 255 255 255
0.5883919905664357 1.1735813302452307 2.2152588639358086 255 255 255
0.5892627612005032 -0.7402891771435396 1.6929729795066084 255 255 255
0.4437809772119579 -0.0283389415849085 1.2471886682926936 255 255 255
0.4444529971173843 -0.0149666044984926 1.2690834496677914 255 255 255
0.2111362499577325 0.9613582611444507 2.1717144737099829 255 255 255
0.4259420468362123 -0.4298925111740193 1.0016980622027560 255 255 255
0.4174975175016726 -0.4456250281224641 1.0819857858676656 255 255 255
-0.2719688266745557 -0.0724370547831767 1.5736013586098743 255 255 255
-0.1061083903151996 -0.0083189865267062 1.5611573075663330 255 255 255
0.4110956034958946 0.3530980282782430 1.5944239432143092 255 255 255
