ply
format ascii 1.0
element vertex 685
property double x
property double y
property double z
property uchar red
property uchar green
property uchar blue
end_header
0.7526791789795748 -0.1387967074285383 1.0596140842557227 255 255 255
0.7414345950627759 -0.0982991155567516 1.0254084770501875 255 255 255
0.6588995085914382 -0.2163492200292298 2.1503077878421006 255 255 255
0.5614390445292798 -0.3489609855053395 3.1256536580314460 255 255 255
0.5147519992305636 -0.3017340739690146 3.0907820769491074 255 255 255
0.5695155650198274 -0.1558135434223402 3.1715811794330193 255 255 255
0.7683904261104342 0.2771476667152779 1.0703459405676030 255 255 255
0.5275205596726309 -0.0983345388661938 3.1700670299519871 255 255 255
0.0742864675513797 -0.2358261815671399 1.9020475167105477 255 255 255
0.5172387188804670 0.4989891239789479 0.7840938489049769 255 255 255
0.3512392765721306 0.4889720293734636 0.7687263468617762 255 255 255
0.0943568799138212 0.2384770462671959 1.8756495138350009 255 255 255
0.4075476387262711 0.0141267160884198 3.0577881938447149 255 255 255
0.1080320626212838 0.1905279916096490 2.1010977459012459 255 255 255
0.6433705637160747 -0.3147817196142662 1.5890175811030014 255 255 255
0.6716745769694796 -0.2618293036885609 1.8556306674841645 255 255 255
0.6549109785922695 -0.2048760474467819 1.5846472003278664 255 255 255
0.6936543740333754 -0.1524635468010613 1.5756436213742631 255 255 255
0.5697714038437454 -0.4328665235943134 3.1204298953389298 255 255 255
0.6247344778255162 -0.1776575766160731 2.3297968490694725 255 255 255
0.7727662392441168 0.1750071968325830 1.0409952177208304 255 255 255
0.8337985092598070 0.3604771269482396 1.1004898899910822 255 255 255
0.4926892722780245 -0.0410916673068815 3.1590975304508486 255 255 255
0.5984405514672275 0.5041852294812212 0.8080589522534400 255 255 255
0.5894935191126933 0.5013298607787178 0.7941031754337633 255 255 255
0.1841494648087370 0.2308696654270710 1.9333229895514008 255 255 255
0.1825505686120881 0.2463062236819518 1.9481171831782600 255 255 255
0.5939660936817021 -0.4338650332402912 1.8337708150675689 255 255 255
0.6313069960026532 -0.2338012296070073 1.3728531039467700 255 255 255
0.8007879005932337 0.0561815929793871 1.0172181010557211 255 255 255
0.0559336524299816 -0.2533138448991288 1.9174512125650018 255 255 255
0.0499014174110073 -0.3023712301962966 2.3731373962393931 255 255 255
0.6676953345648746 -0.2205634958217866 1.6153767276249302 255 255 255
0.4858934604885699 -0.4234559808157908 2.5762876033167199 255 255 255
0.5478712177805107 -0.4354353637617319 3.1130650281841596 255 255 255
0.7664845151833344 0.0876732253554753 1.0038698888501592 255 255 255
0.7797666351260740 0.1085701460815271 1.0306739485964800 255 255 255
0.0893618211171443 -0.2663699512187385 2.0369866200865427 255 255 255
0.5561342234441078 -0.2129209637489229 3.1519606985162980 255 255 255
0.8312634424709344 0.3799426126826440 1.1452150831439289 255 255 255
0.4961213962681641 -0.0524966950449215 3.1920606139655661 255 255 255
0.4616545743326839 -0.5953451401144463 2.5692955343017232 255 255 255
0.6339530580433292 -0.6276076933792087 1.9814820024508581 255 255 255
0.6623666462086681 -0.3694417671608570 1.8165174499648353 255 255 255
0.6836864881162263 -0.2575827217764100 1.5779372044343813 255 255 255
0.5494171745460861 -0.2699136086956138 1.4234930389536569 255 255 255
0.6834006464316245 -0.1524262897712043 1.7259724475098497 255 255 255
0.7047595470807121 -0.0931645513949917 1.4990416965212428 255 255 255
0.6182023684539675 -0.1825061476156778 1.7861275564627785 255 255 255
0.8038229069677811 0.0628912890094711 1.0413182677336472 255 255 255
0.7927447774955638 0.0983307234369946 1.0282236620870790 255 255 255
0.7953843953161872 0.1705655892212370 1.0352374691019968 255 255 255
0.4990921110395163 -0.2075913334475494 3.1216147945899451 255 255 255
0.5310696564479258 -0.1642003264218488 3.1609120204020513 255 255 255
0.8310361507019870 0.3352454966618605 1.0810244900156487 255 255 255
0.5103701284431903 -0.1516031458884672 3.1443585555248639 255 255 255
0.5217981006109920 -0.1242490083523125 3.1598648640555833 255 255 255
-0.0994931566647583 -0.2733834882467407 2.3034456890953168 255 255 255
0.3504192416127189 0.4172715014498242 1.3420704369180549 255 255 255
0.3311302921453319 0.4247380240417797 1.0701898470954436 255 255 255
0.3940589079687386 0.5079403319108311 0.9592008127045606 255 255 255
0.1867221401727892 0.2238201359847993 1.9612078739626675 255 255 255
0.2977510165893378 0.4569631074241514 0.9074728188185546 255 255 255
0.1752014804370354 0.2259065450368833 1.9539082892785693 255 255 255
0.1806545891308673 0.2328390816713224 2.0009935162955665 255 255 255
0.2626143853149667 0.4937450151404455 0.9317834405842826 255 255 255
0.1125384992971608 0.2832102748633272 1.6545687671443612 255 255 255
0.1507000688332933 0.3516815654372669 1.3490085251082591 255 255 255
-0.0489597184538937 -0.0219891191927815 3.0136941682485059 255 255 255
0.6882870778142559 -0.2408752966298562 1.0676823517725524 255 255 255
0.6678464867064253 -0.2802328719673749 1.2396836490288594 255 255 255
0.4998661714575725 -0.5753288297523609 2.6090984330283717 255 255 255
0.6054570358715701 -0.2836439325663811 1.5077764609510633 255 255 255
0.7506561613439560 -0.0874944997149295 0.9816307641705355 255 255 255
0.7296245896149700 -0.1273191991193189 1.2104419562811324 255 255 255
0.7178509371611488 -0.1375883798010791 1.2710800480418403 255 255 255
0.7430799140686712 -0.0872780901587937 1.0798601308178517 255 255 255
0.9595413482023023 0.0997985299210336 0.9703880166717420 255 255 255
0.6527003077357052 -0.2198321915878276 1.9749184568262939 255 255 255
0.5767154044614280 -0.3327823572132793 3.1689825998625558 255 255 255
0.7699022616641802 0.1789603859578204 1.0413480797773573 255 255 255
0.8578965542196055 0.2563536458628732 1.0672759684391302 255 255 255
0.7622279413310981 0.2148862315782224 1.0189531663830054 255 255 255
0.6141259438993458 0.0153116976401626 2.1669189764007966 255 255 255
0.5592221407416114 -0.1402821945205335 3.1663570759741573 255 255 255
0.8234874265725036 0.3517141755712387 1.1064753433333734 255 255 255
0.8332921834297689 0.4355284557993113 1.2211838458081739 255 255 255
0.5380510773255338 0.0367206406662035 2.9964697681431574 255 255 255
0.2624033230961054 0.0056224046566768 3.0454688620871764 255 255 255
0.4719640422955251 0.4924086746545413 0.7906107423052902 255 255 255
0.1752179310736235 0.2153750367519365 1.9985967212166971 255 255 255
0.1285780793711870 0.3162356610244839 1.4842667587513261 255 255 255
0.1082898009559052 0.2965816709056988 1.4280374921165748 255 255 255
0.0749862976358231 0.2111251437782284 2.0343756982324752 255 255 255
0.1408166175815140 0.3608704645831224 1.2740436089105387 255 255 255
0.0016514656545432 0.0898816688799045 2.5068316125720838 255 255 255
0.5326709903443643 -0.1644506363849665 3.1617594655937253 255 255 255
0.5298986856195729 -0.1392454030907393 3.1581421969555183 255 255 255
0.8448152504848601 0.4395482939594899 1.2476767696272475 255 255 255
0.0668076580803394 -0.2073534164486128 1.8960773204909849 255 255 255
0.1521325520186991 0.0642272467517806 2.7297966165345571 255 255 255
0.0968082088284198 0.2299357332089005 1.8851056586378163 255 255 255
0.6407354839208503 -0.6371526380615369 2.1204754983592071 255 255 255
0.6693546472929324 -0.2641578845987294 1.6094978516045186 255 255 255
0.5768934484944731 -0.2166693202836249 1.4454279950654276 255 255 255
0.6842975027481701 -0.1589445172513314 1.6106151849325905 255 255 255
0.8614958217622473 0.1310662324840308 1.0336880979867829 255 255 255
0.8153109404086099 0.1076336993976170 1.0220726106767524 255 255 255
0.5615814808200881 -0.2808792621145031 3.1419512677645400 255 255 255
0.5181462497994742 0.0233538480586866 2.9753091997599075 255 255 255
0.0113548104405075 -0.1839385578275476 2.1378071250649260 255 255 255
-0.1453357617715199 -0.2182478156833643 1.9878233371578156 255 255 255
0.1826179562061768 0.2520996616600151 1.8135580624931726 255 255 255
0.6734990131940919 -0.3847760300811847 1.8722904182199063 255 255 255
0.5327690519438741 -0.4423591737849142 1.8111392215473652 255 255 255
0.6045222170575024 -0.3120701470348964 1.5601244599135962 255 255 255
0.8184272319950310 0.3544440250520524 1.0995688879319163 255 255 255
-0.1463867692960026 -0.2138881622321431 1.9916374332947671 255 255 255
0.1351013014435577 0.2297268983841625 1.9178512018844036 255 255 255
0.5090604980423943 -0.4545283270438640 1.8326037842272607 255 255 255
0.6923493332776012 -0.2662079936044890 1.2102904879254801 255 255 255
0.8444712914515087 0.0808442113373200 1.0475194681499627 255 255 255
0.5530624284071068 -0.5662265940731105 2.6430484471851985 255 255 255
0.7852239545561499 0.1661041367298579 1.0520575895801461 255 255 255
0.7017383670639191 -0.2806073573018135 1.4762500387638557 255 255 255
0.7032129150975521 -0.2400034074398052 1.5440852314207216 255 255 255
0.6104723426366121 -0.2455516709602357 1.3961643796086651 255 255 255
0.7505148003247886 -0.1227127614308312 1.1920682441658146 255 255 255
0.7230186487586617 -0.1413586324193705 1.2189605496883198 255 255 255
0.5869067692047807 -0.3616328427698418 2.5428286977343220 255 255 255
0.7900668869284857 0.1072127013808366 1.0097742774705232 255 255 255
0.7611827680752938 0.1083588762585794 1.0233642943000198 255 255 255
0.8371912167186366 0.1695681406354232 1.0593677627217346 255 255 255
0.7658459711553434 0.1315823705641925 1.0714073363755681 255 255 255
0.7207987676828416 0.4215645078349723 1.1324450885481245 255 255 255
0.1968477718190123 -0.1247602783077859 2.0896632335918497 255 255 255
-0.0069279692141659 -0.2667221117366827 2.0745684929684591 255 255 255
0.3370590580937289 0.0767094947116789 2.7511643554201655 255 255 255
-0.1163375848633272 -0.2656284046371475 2.2032326101863431 255 255 255
0.1501814996256527 0.0628804160995742 2.7295787588708151 255 255 255
0.2111908429091525 0.2671028639815489 1.7584685628776924 255 255 255
0.1714546993986827 0.2539196600732279 1.8170582581398307 255 255 255
0.0739174830249824 0.2127047535958660 1.9457794564079638 255 255 255
0.1080925448431653 0.2816446104655590 1.6364908941328933 255 255 255
0.0678467917610350 0.2151836458405144 1.9396766108573384 255 255 255
0.6258646745448173 -0.6510378797541075 2.1435432067952060 255 255 255
0.6817176474100428 -0.2746624061300347 1.2137435786131689 255 255 255
0.6045383826084034 -0.2751254376746104 1.4114076555680342 255 255 255
0.7303395167489057 -0.1206754791039728 1.1225698208406811 255 255 255
0.4630752918608092 -0.4502568759815542 2.5039904249611880 255 255 255
0.7810859423096055 0.1282391077032337 1.0191394863719854 255 255 255
0.8639884396747277 0.4438101369114165 1.1074922715106617 255 255 255
0.8658692060314550 0.4488363234545858 1.1241422691983836 255 255 255
0.7594241314854439 0.4146392726240868 1.1030976546071070 255 255 255
0.5264691347554482 0.0733436723763852 2.7778285185128491 255 255 255
0.1675708316746931 0.3711976457892057 1.2338342241377109 255 255 255
0.0749958879129399 0.2142722250313424 1.9454569816557574 255 255 255
0.0230806693127938 0.1150694082938770 2.4100526415869616 255 255 255
0.4599369692888686 -0.5748913529054462 2.6091206459030971 255 255 255
0.7466377825463300 -0.1962719415720479 1.1238888113868259 255 255 255
0.7340626459233004 -0.1115273995438324 1.1986479183243244 255 255 255
0.3028518683742516 0.0799068044976650 2.7483128352325892 255 255 255
0.6133108808313130 -0.6527256773525255 2.1491048022019807 255 255 255
0.6612622839274449 -0.3503809521837558 1.6182381447112104 255 255 255
0.6205465487517685 -0.3289965023412620 1.5891351809796124 255 255 255
0.6035511176210271 -0.3188843464161266 1.5673285629086458 255 255 255
0.6405921797761964 -0.2534936563507841 1.5614078257677511 255 255 255
0.6871632733236136 -0.1331998689449043 1.5721712080000634 255 255 255
0.7983718969396776 0.1130947831487106 1.0415972026125573 255 255 255
0.8769469679760906 0.4533460987136007 1.1247472272715657 255 255 255
0.5385552110589662 0.0445354092081632 2.9113542956316261 255 255 255
0.5306931206441092 0.0809790181935695 2.7842629937347025 255 255 255
0.1395617024889129 0.2410175871937499 1.8542088319711700 255 255 255
0.8397394159944774 -0.1835540577740645 1.5073798075538765 255 255 255
0.8340351690162429 0.0646652346497962 1.0188611590116405 255 255 255
0.7564970418343275 0.0917929970484206 1.0096076647313463 255 255 255
0.7663188857926526 0.2330871137653885 1.0654511638677699 255 255 255
0.7010918107451776 -0.4520106626729490 1.8074828934273208 255 255 255
0.6714991256113403 -0.2378388282189078 1.2397330859268456 255 255 255
0.7027095733940349 -0.1962868526858772 1.5345525199098748 255 255 255
0.5867062464884509 -0.2399532085956076 1.4923315511080499 255 255 255
0.5300088923869488 -0.2524800320734979 1.5134362509464063 255 255 255
0.5917865592762315 -0.3741373351634240 2.5725277774741233 255 255 255
0.6561338389536964 -0.1557167721177624 1.5037587601205615 255 255 255
0.7588459220551229 -0.0038476456195689 1.0033865364493799 255 255 255
0.8076067628381267 0.1624495223524107 1.0348145166956826 255 255 255
-0.0076422190699788 -0.3263676828968265 2.3355342506152255 255 255 255
0.6295133524470605 0.4670549115383403 0.9717605550568720 255 255 255
0.1717618036726392 0.1292893373623905 2.5880456842467159 255 255 255
0.0290233957985158 0.1246627979031421 2.5750120924656388 255 255 255
0.6874550252885854 -0.3358877908383140 1.6103513617087977 255 255 255
0.6347679833131514 -0.3539374979724744 2.1230071355962536 255 255 255
0.8251690952553759 0.0527166522600258 1.0422396808910577 255 255 255
0.8034879948977967 0.0945672301025802 1.0617711755402048 255 255 255
0.8220527238084543 0.1274881844652640 1.0223942659433547 255 255 255
0.6527452747824434 -0.0302137953768695 2.2852393966859710 255 255 255
0.5451904803886967 0.0743179717829028 2.7671873150006183 255 255 255
0.5144797684980840 0.0458150077158224 2.9052139063847777 255 255 255
0.7559714186203843 0.0217944870295383 0.9984119611766888 255 255 255
0.7925204735754150 0.0596273539696952 1.0512127583214941 255 255 255
0.6534547103268297 -0.4677477900106687 1.8541887861477866 255 255 255
0.5847005336257070 0.0897065582094934 2.7060149632124437 255 255 255
0.3607331122112516 0.1310717050216237 2.6295240463959244 255 255 255
0.6988082557092303 -0.2146463892623540 1.5235376106708411 255 255 255
0.8079113181694737 0.0144486951571849 1.0144385192331455 255 255 255
0.7424191035366121 0.1431963122364195 1.0327908703680393 255 255 255
0.8415083557802525 0.2606633368271591 1.0980216445530173 255 255 255
0.6648337399222939 -0.2977925449554681 1.5566886806832585 255 255 255
0.7601695884685530 -0.1827347120211340 1.0770019562597994 255 255 255
0.6929243181205873 -0.2429880602828598 1.5500731012539659 255 255 255
0.6505135486775622 -0.2291272147852239 1.5437089444842638 255 255 255
0.6858160262073141 -0.2272624737546962 1.6849778634164045 255 255 255
0.6616865092923074 -0.1980852824401223 2.0347514942510654 255 255 255
0.6667305515049713 -0.1353999749343223 1.8414557089379491 255 255 255
0.6469201565612275 -0.1805656983448919 2.1822055316610154 255 255 255
0.7748928555556776 0.1514087680693529 0.9341424408461672 255 255 255
0.0677407739598745 -0.2096530744852991 2.0883118023448626 255 255 255
0.6945637902364190 -0.2684030499880361 1.5241168589100216 255 255 255
-0.0596771212539853 -0.2028030271890920 2.2947669041254528 255 255 255
-0.0896229341015777 -0.1666804867097098 1.8876084181972157 255 255 255
0.7637387331509631 0.0503993383975183 1.0128400406628761 255 255 255
0.5515182199117112 0.1117550880853255 2.5991030555316543 255 255 255
0.4700603139926596 -0.5940453314380512 2.5666046704689887 255 255 255
0.5826938129536998 -0.3535626035063597 2.5832071559710741 255 255 255
0.6814355394400007 -0.3099866890313672 1.2024287925225781 255 255 255
0.8016245786805740 -0.1934889457142926 0.7651356624552160 255 255 255
0.8011539103696369 -0.1884859149514413 0.7680653176598200 255 255 255
0.8000060334280343 -0.1867828416385713 0.7770019845027754 255 255 255
0.7019402039594469 -0.2465569773051226 1.0935240602684930 255 255 255
0.7987206317628364 -0.1785328760525348 0.7845593408374477 255 255 255
0.8134170833285069 -0.1540945319300280 0.6786576960269453 255 255 255
0.7822491440826714 -0.2032129375673393 0.9067043079425546 255 255 255
0.8014572701677335 -0.2264993267140374 1.1222271780274400 255 255 255
0.7343715306146317 -0.2537005045981154 1.2886747272115442 255 255 255
0.7343999963055239 -0.2496130606342822 1.2829755542033563 255 255 255
0.7487477794479558 -0.2253252130098128 1.1644918052711009 255 255 255
0.7317208941632840 -0.2559547995755052 1.3143282840460120 255 255 255
0.7565781417427586 -0.2112212444956248 1.1056689195110008 255 255 255
0.7472421305351928 -0.2265606487074472 1.1780425468861235 255 255 255
0.7877673877282760 -0.2004915515469363 1.0611102635711513 255 255 255
0.7442564214158136 -0.2294480050489634 1.2071255244104915 255 255 255
0.7374052256652719 -0.2331502318948616 1.2548480188133850 255 255 255
0.7369077414694338 -0.2312926268234253 1.2605088475061756 255 255 255
0.7605411137873634 -0.1932290430359134 1.0776846253548720 255 255 255
0.7712478506107365 -0.1809480921116101 1.0221403325768910 255 255 255
0.7553729833688818 -0.1974628570650825 1.1145533412989286 255 255 255
0.7321109480116466 -0.2368742188526582 1.3125278428739886 255 255 255
0.7570310445946680 -0.1857223476539132 1.0736015750832091 255 255 255
0.7452618900366013 -0.2085064728317527 1.1951375885449731 255 255 255
0.7526379124104602 -0.1961518941464933 1.1376291552587194 255 255 255
0.7528227621306425 -0.1901310969522423 1.1351907136200785 255 255 255
0.7577238249425950 -0.1806173132857144 1.0842556901848686 255 255 255
0.7899266303059049 -0.1293774137701886 0.8512765037141523 255 255 255
0.7605896080792086 -0.1786086475414689 1.0769887464059844 255 255 255
0.7448121281165787 -0.2020279720989074 1.2004641720500095 255 255 255
0.7624342096839161 -0.1716038851858798 1.0555491000637680 255 255 255
0.7353190476528071 -0.2154862765028473 1.2678282626694410 255 255 255
0.7398887175166434 -0.2089149957144049 1.2373063459088292 255 255 255
0.7738789261032727 -0.1494161252419207 0.9646424746284721 255 255 255
0.7889784428761721 -0.1234646747920938 0.8475675769324507 255 255 255
0.7401168016233183 -0.2058875069999895 1.2224297215681439 255 255 255
0.7509056379886252 -0.1884963672415184 1.1533808504068788 255 255 255
0.7419041563624655 -0.2004553126625429 1.2225832265116827 255 255 255
0.8062816541285480 -0.0917638281526374 0.7296395023789473 255 255 255
0.8252724715102557 -0.0609276573582977 0.5897478329142725 255 255 255
0.7476915882506259 -0.1886866432748631 1.1700501981201428 255 255 255
0.7600954389937007 -0.1671554131437269 1.0755489476499536 255 255 255
0.7449421576429023 -0.2002274461782828 1.2337469500391003 255 255 255
0.7445005583278534 -0.1876662357036736 1.1943003777009795 255 255 255
0.7552556823866797 -0.1510624586918294 1.1029721416110472 255 255 255
0.7803715410064731 -0.1079521911616858 0.9087864800894141 255 255 255
0.7667927558877392 -0.1332152969998374 1.0214129017777798 255 255 255
0.7959554795057886 -0.0827787376051356 0.7989150037042959 255 255 255
0.8072207487929428 -0.0515900280926421 0.7097738700947120 255 255 255
0.7339534888959314 -0.1280997484408584 1.1427596370697586 255 255 255
0.7905394651672218 -0.0554460832469800 0.8309133673806989 255 255 255
0.7343580034352402 -0.1219180737410714 1.1436015179265262 255 255 255
0.7189061805315990 -0.1528070747742348 1.2765904404940915 255 255 255
0.7215579348955825 -0.1394312144293041 1.2823487923733214 255 255 255
0.7241660755124002 -0.1289652244921604 1.2336519537109183 255 255 255
0.7172965516126268 -0.1423442600238676 1.3046818752818963 255 255 255
0.7328604969637063 -0.1140278026285974 1.2288288216502350 255 255 255
0.7897309962808940 -0.0174731375604535 0.8383632380644006 255 255 255
0.7951283114824168 -0.0038152626048556 0.7934543112139489 255 255 255
0.8258316097373744 0.0483276467818674 0.5729925818668424 255 255 255
0.7364264651224559 -0.0832543619729572 1.2385503502343340 255 255 255
0.7377067348119302 -0.0809906178509594 1.2307647491340998 255 255 255
0.7356018772602271 -0.0779117046712613 1.2109487046930929 255 255 255
0.7394552644497048 -0.0795500105554308 1.2225466998121755 255 255 255
0.7472034368276397 -0.0657814490321546 1.1593288430049622 255 255 255
0.7507680121114153 -0.0590861601878721 1.1283718478356524 255 255 255
0.7674224831813046 -0.0330313938480077 1.0094017717592734 255 255 255
0.7662090944436803 -0.0349865356823980 1.0199973045473492 255 255 255
0.7724855160056211 -0.0223766714614668 0.9598543745877927 255 255 255
0.7715095778754419 -0.0233030570410857 0.9687461955856645 255 255 255
0.7759271529389747 -0.0121974114334487 0.9338377170421220 255 255 255
0.7796406804392996 0.0097459573294956 0.9045957893912316 255 255 255
0.7901048390199782 0.0370917640031481 0.8241012093030697 255 255 255
0.7765261189395147 0.0179267542922052 0.9291671373264725 255 255 255
0.7882460106892354 0.0378760636443227 0.8393349156079770 255 255 255
0.7728476347616212 0.0213193325340756 0.9616243668026827 255 255 255
0.7752229453093391 0.0318473027917721 0.9414859735280715 255 255 255
0.7785296783606872 0.0571787590671964 0.9087800959324648 255 255 255
0.7744357892339062 0.0512408693921946 0.9411837817798158 255 255 255
0.8055893520337147 0.1047212885011454 0.7123876010211867 255 255 255
0.7720540265779378 0.0518445223912535 0.9579295647621323 255 255 255
0.7736225885709010 0.0533827966184234 0.9470065637603323 255 255 255
0.7878035016385465 0.0813507702242443 0.8446447219791964 255 255 255
0.7764621834616703 0.0695916145749138 0.9208650487042225 255 255 255
0.7804507085962635 0.0913281514754770 0.8941493571342636 255 255 255
0.7736247180813178 0.1136810165520224 0.9534809904015552 255 255 255
0.7698085665962560 0.1178954178677179 0.9479579246733547 255 255 255
0.7739524310558600 0.1288358149980299 0.9389203291243218 255 255 255
0.7714106684425124 0.1436906124508015 0.9557824060109139 255 255 255
0.7732136236286771 0.1458299330930578 0.9407884843161367 255 255 255
0.7648376185420962 0.1451599229881900 1.0049100859881785 255 255 255
0.7686101886962806 0.1518778750460563 0.9764950514028679 255 255 255
0.7855909450288814 0.1810353506704044 0.8462914685478988 255 255 255
0.8031995963436589 0.2119104433746919 0.7225391262071060 255 255 255
0.7889437441317811 0.2195204852781150 0.8255999400323921 255 255 255
0.7760294223933930 0.2311835703916550 0.9206226365746247 255 255 255
0.7728417121122422 0.2234672417656472 0.9481890615187076 255 255 255
0.7666504195987982 0.2150979052094670 0.9938354236255881 255 255 255
0.7598545112840362 0.2066211336272759 1.0319039940198027 255 255 255
0.7869803436017252 0.2815426609913274 0.8372695101793031 255 255 255
0.7633355052441759 0.2434937499090534 1.0100024673412482 255 255 255
0.7793576930180355 0.2702304502170566 0.8914769841213139 255 255 255
0.8286567679035372 0.3474225606851857 0.5429538882160312 255 255 255
0.7744329373983954 0.2942010599634615 0.9292787712250381 255 255 255
0.7846097097035709 0.3455625305265245 0.8521011189983188 255 255 255
0.8124424521689810 0.3892975209264636 0.6535763306230286 255 255 255
0.8158339785843622 -0.1886680558723556 0.6616021205443734 255 255 255
0.7947702709132871 -0.1975856580722539 0.8201426845502559 255 255 255
0.6845741764600435 -0.2839909949753854 1.2389097423893887 255 255 255
0.7177385396920837 -0.2241528312248305 0.9654518996934472 255 255 255
0.6823007626358546 -0.2623124774596937 1.2157675801166583 255 255 255
0.7595215838201934 -0.2110838462111841 1.1076060937983128 255 255 255
0.7571158015138129 -0.2013726304631753 1.1086759139599038 255 255 255
0.7807592849550857 -0.1439519620086005 0.9123401395616115 255 255 255
0.7355529010512218 -0.2230581864793676 1.2738163700795087 255 255 255
0.7621062398690790 -0.1779564086107495 1.0754045948744828 255 255 255
0.7473562526206519 -0.1947580811906500 1.1747685463883701 255 255 255
0.7601608914724576 -0.1672457149013798 1.0757773416172016 255 255 255
0.7322787429901716 -0.2134969624249560 1.2960679498706102 255 255 255
0.7684132643931877 -0.1311521253958757 0.9923763355487306 255 255 255
0.7427509575652635 -0.1808451806580997 1.2299857547883128 255 255 255
0.7602484829360667 -0.1444857544441613 1.0647814048570790 255 255 255
0.7731800497313635 -0.1220056145443603 0.9616781189369935 255 255 255
0.8062324628083081 -0.0655733106424174 0.7175688604504944 255 255 255
0.7376304929253577 -0.1048729633567896 1.1044354990203340 255 255 255
0.7396434363562885 -0.0953873064993578 1.1095119095206476 255 255 255
0.7320909888374380 -0.1131448907946834 1.1796899666862870 255 255 255
0.7241337625914657 -0.1237119836643670 1.2608851045642764 255 255 255
0.7277211473561476 -0.1157029877338529 1.2265990845385999 255 255 255
0.7212969381084799 -0.1252323291406740 1.2800537682870261 255 255 255
0.7768276692825526 -0.0126214498010378 0.9249494833959416 255 255 255
0.7825570938247687 0.0001084506187899 0.8871055595455704 255 255 255
0.7865803751493506 0.0406920534232965 0.8508597677342233 255 255 255
0.7674154394161254 0.0198895985261845 0.9926267613032893 255 255 255
0.8059825465219794 0.1043561901736091 0.7127092559258466 255 255 255
0.7712673615534897 0.0505648990817568 1.0044779965194284 255 255 255
0.7767827035730299 0.0726007989254230 0.9195164821352165 255 255 255
0.8173229892660202 0.1561431025612362 0.7103171924325489 255 255 255
0.7780046756870940 0.1226216276344586 0.9071813822521275 255 255 255
0.7684060950786145 0.1181752787600229 0.9815193700190562 255 255 255
0.8069229589462864 0.1979185938907429 0.6980183484987370 255 255 255
0.7758923684568066 0.1527066271875273 0.9372019812178918 255 255 255
0.7598639696363207 0.2063770140877892 1.0315965597066161 255 255 255
0.7690107908145585 0.2539114673454337 0.9690013108178130 255 255 255
0.8111070044253195 -0.1740722388637001 0.6953214051733730 255 255 255
0.7442550672009260 -0.2295767590711201 1.2063355698337230 255 255 255
0.7429300393742950 -0.1996820589926838 1.2230005986380905 255 255 255
0.7387902644069694 -0.1949156592630880 1.2387737316113865 255 255 255
0.7799325353059938 -0.1083700999586746 0.9080988171725417 255 255 255
0.7792321854288590 -0.0107649481739483 0.9107969476173738 255 255 255
0.7810110423747181 0.0590550001039627 0.8926746543672189 255 255 255
0.7722705815777777 0.2238232110343350 0.9478374807251645 255 255 255
0.7594450174761516 0.2373616917408472 1.0413459805265259 255 255 255
0.7631686226297321 0.2442450203724595 1.0095476717859064 255 255 255
0.7746092751122643 0.2948886563213141 0.9293203069805768 255 255 255
0.8054580847418019 -0.1141993938550034 0.7276823634246850 255 255 255
0.7615945995863060 -0.1428291436460992 1.0463966236837645 255 255 255
0.7582142353901510 -0.1517819928338305 1.0832797890777290 255 255 255
0.7429568303109347 -0.1705918194079068 1.2100512381125224 255 255 255
0.8027763844316268 -0.0376298480062949 0.7435457147554684 255 255 255
0.7978640900238343 0.0123571337733757 0.7456706301007974 255 255 255
0.7313852206127041 -0.0992690685148929 1.2828908497903080 255 255 255
0.7555981622452975 -0.0497707093460378 1.0880031023658232 255 255 255
0.7381863217873286 -0.0455093649064953 1.0543910543140080 255 255 255
0.7770317470991629 -0.0125805648282627 0.9240919863174056 255 255 255
0.7614412554119303 0.0127675839480850 0.9655660567436914 255 255 255
0.7679528016243982 0.0196382411546471 0.9921137047364743 255 255 255
0.7638485902236640 0.1282249297576944 1.0035439516394440 255 255 255
0.7617253495195451 0.1445583768106931 1.0061446170876649 255 255 255
0.8043997527303389 0.2100000124650660 0.7149116590340452 255 255 255
0.7623052088557412 0.1741722034931288 1.0258357240863325 255 255 255
0.7663898794448021 -0.1644509564386089 1.0229142708461798 255 255 255
0.7580790130440670 -0.0641628866525100 0.9773963359226453 255 255 255
0.7406644084666030 -0.0895234711781970 1.1006725191343527 255 255 255
0.7646471634339767 0.1356126913568121 0.9947329282762456 255 255 255
0.7198581831455400 -0.2139348022367434 0.9566558925747852 255 255 255
0.6175644436451568 -0.2835374480876945 1.1101992036828103 255 255 255
0.6214391681547680 -0.2767805790324332 1.0771588068305586 255 255 255
0.6952353103290037 -0.3262982876908662 1.2647817230993255 255 255 255
0.8217409840354706 -0.1715851572915829 0.6175549554131630 255 255 255
0.6799120468019113 -0.2896051957449568 1.2443309381046037 255 255 255
0.6878949491499959 -0.2815070177519672 1.2500873441975813 255 255 255
2.5592861278046257 -0.6174125786625453 2.4119043996565495 255 255 255
0.6622742288770507 -0.2543747138357482 1.2207214290207631 255 255 255
0.7900230369837641 -0.1951607856788194 0.9328288796564498 255 255 255
0.8055944702505204 -0.1192605526956810 0.6603307496135281 255 255 255
0.7050498110235004 -0.3050979290645186 1.5149662434699904 255 255 255
0.7046561721766800 -0.3054243147210107 1.5227602389110011 255 255 255
0.7107239813381209 -0.2918439843590364 1.4615056489653884 255 255 255
0.7075828586096884 -0.2982985299630755 1.4916439029380870 255 255 255
0.7128934473226148 -0.2897622137514327 1.4548209717346547 255 255 255
0.7190047289490231 -0.2794824213347840 1.4060587556007085 255 255 255
0.7310031119693150 -0.2608703770908878 1.3180809728813854 255 255 255
0.7194170686182975 -0.2758614781181001 1.3997655423650150 255 255 255
0.7292847608809974 -0.2644685267021816 1.3489496335512405 255 255 255
0.7794119304961757 -0.1726412133131028 0.9316906347567342 255 255 255
0.7155785502009309 -0.2836452793670820 1.4429502000558632 255 255 255
0.7192267145818643 -0.2774519842719005 1.4117131433229146 255 255 255
0.7302514941216927 -0.2557278392358066 1.3129677173364882 255 255 255
0.7523700208126520 -0.2190700364585952 1.1458331577931153 255 255 255
0.7068981498040775 -0.2996445226242831 1.5164637685791964 255 255 255
0.7110122435358260 -0.2896750032804661 1.4738645750300199 255 255 255
0.7081916146598694 -0.2945890327191561 1.4952997796760596 255 255 255
0.7179415823355590 -0.2782760313990877 1.4167669374821497 255 255 255
0.7189445897851243 -0.2703153437608644 1.3847605606995641 255 255 255
0.7115203756726001 -0.2870774997642242 1.4648362311360446 255 255 255
0.7299360894965714 -0.2433818193239740 1.2694500590974345 255 255 255
0.7141123549061827 -0.2837837855782692 1.4550220783795318 255 255 255
0.7075634461124873 -0.2923162719596167 1.5001601759139682 255 255 255
0.7068908172770056 -0.2948348357518898 1.5119573770449692 255 255 255
0.7256581853609498 -0.2641314634565204 1.3804123006241218 255 255 255
0.7839222710632023 -0.1548613202244722 0.8973784615706401 255 255 255
0.7726756161297814 -0.1730743638886261 0.9766184624468393 255 255 255
0.7587235880240746 -0.1960849222374448 1.0904463099877986 255 255 255
0.7893394179629789 -0.1420030401393750 0.8423074255218346 255 255 255
0.7615858344852293 -0.1932694866657202 1.0732827247784762 255 255 255
0.7133773770102687 -0.2539926616341658 1.4269335269031207 255 255 255
0.7146665089119573 -0.2606280638653693 1.4542308229796603 255 255 255
0.7108076581121363 -0.2580861950520972 1.4436981931024917 255 255 255
0.7233184768097471 -0.2401766208877301 1.3800555893624984 255 255 255
0.7231283951675620 -0.2369312403040203 1.3627599271077133 255 255 255
0.7317979452219847 -0.2220171905353614 1.2961750595064558 255 255 255
0.7592566444782414 -0.1745013296073605 1.0820573545142897 255 255 255
0.7013677639950817 -0.2545629864058364 1.4471408640886354 255 255 255
0.7300784651646404 -0.2261215336259700 1.3177555155023668 255 255 255
0.7264512875077488 -0.2295460097436316 1.3343377148941893 255 255 255
0.7306671111316676 -0.2227319265902043 1.3062172906803649 255 255 255
0.7356095826659708 -0.2131313673013794 1.2602197348338970 255 255 255
0.7483796939338230 -0.1921883093505676 1.1647131594718287 255 255 255
0.7775312710771078 -0.2231690734001172 1.3306605849666855 255 255 255
0.7159290302545820 -0.2468977677367687 1.4374314604678893 255 255 255
0.6449485483687489 -0.2499024639987615 1.4525176706220604 255 255 255
0.7208154531781767 -0.2302224434621503 1.3641252707666496 255 255 255
0.7182993980288233 -0.2371099059560930 1.4069257619106690 255 255 255
0.7190909269454731 -0.2333306037812283 1.3978437002777073 255 255 255
0.7308763088155927 -0.2104721894552513 1.2894509102857781 255 255 255
0.7557562424286612 -0.1698531928990996 1.1091693474030240 255 255 255
0.7539209616657628 -0.1690870080861463 1.1190175377135883 255 255 255
0.7473975066877578 -0.1811139610175937 1.1747462958411072 255 255 255
0.7206135575086137 -0.2247470975702909 1.3824496754022233 255 255 255
0.7243073896318712 -0.2121777174481249 1.3500620483722670 255 255 255
0.7319596466960112 -0.1917877012737680 1.2850032423630717 255 255 255
0.7555937869193265 -0.1539991344297377 1.1126167859257254 255 255 255
0.7433610969997213 -0.2242281950882105 1.4421087347064532 255 255 255
0.7188884206017132 -0.2172111709205010 1.4028243595544145 255 255 255
0.7634102684104456 -0.1465160587169541 1.0827727381846874 255 255 255
0.7613213154361786 -0.1389114589313767 1.0589601452234585 255 255 255
0.6974866981647203 -0.2188083459838192 1.4379312016595831 255 255 255
0.6815828623696185 -0.2160435898023954 1.4436209857605522 255 255 255
0.7063974270973530 -0.1787228116999961 1.3737239176356872 255 255 255
0.6978343587690308 -0.1918104682176170 1.4534786331436980 255 255 255
0.7993636839283502 -0.0424764804132040 0.7695703443474098 255 255 255
0.7066101065466421 -0.1720852067041810 1.3742656271704514 255 255 255
0.7089455259660653 -0.1941078428206140 1.4876296818405432 255 255 255
0.7100044860127188 -0.1880211575811880 1.4649649927800086 255 255 255
0.6198093779254350 -0.1906836496584274 1.4413132126132950 255 255 255
0.7077995024320123 -0.1908036294918930 1.4805261647249743 255 255 255
0.7068261622741550 -0.1924002432255445 1.4928007454915537 255 255 255
0.7160529207466839 -0.1516074613904738 1.3024293007191425 255 255 255
0.7063020903920378 -0.1843321626514696 1.4796729864616605 255 255 255
0.7391054103192450 -0.1022533988294186 1.1071196731758328 255 255 255
0.7102139809638164 -0.1515901926107714 1.3630434245640961 255 255 255
0.7148199111705233 -0.1369735466488504 1.3306535010933653 255 255 255
0.7989494860077648 -0.0050319120377136 0.7693505100239787 255 255 255
0.6390198395102646 -0.1700387718082845 1.4961102927875969 255 255 255
0.7075626179567305 -0.1589808286527779 1.4840215079831314 255 255 255
0.7053341014070309 -0.1492317143643593 1.4996826382406319 255 255 255
0.6903606830912238 -0.1426835625577495 1.4933189250696426 255 255 255
0.6569412163355590 -0.1509362588731352 1.5154212338726527 255 255 255
0.7204997609200747 -0.1118987118106999 1.3707302973964344 255 255 255
0.7239446186971636 -0.1038411906727342 1.3333211132433012 255 255 255
0.7322068815029894 -0.0913048571172559 1.2760349945859346 255 255 255
0.7486481803953695 -0.0615887153478323 1.1400327083603208 255 255 255
0.7516479393064261 -0.0558167139278883 1.1125101989920649 255 255 255
0.7613704468809480 -0.0404856061180151 1.0443029265249160 255 255 255
0.7792708780317530 -0.0110146807581393 0.9111802621387506 255 255 255
0.7860031077611243 0.0032304286862206 0.8596230277945890 255 255 255
0.7830907124773314 -0.0017375986237361 0.8802709006713278 255 255 255
0.6782669232976630 -0.1422311180569495 1.5147854761681114 255 255 255
0.7844813368193995 0.0021085453165642 0.8753650916335198 255 255 255
0.7132213115590245 -0.1069191821894196 1.4298731494733616 255 255 255
0.7048208489528425 -0.1184288866008511 1.4915781479184047 255 255 255
0.7112575783270165 -0.0940555977482150 1.4440020622955596 255 255 255
0.7029680600451398 -0.0990921037983369 1.4889582120498417 255 255 255
0.6934244251766304 -0.1117495881807101 1.5842388294252099 255 255 255
0.8302442671152215 0.1332622227585289 0.5422663416947606 255 255 255
0.7887536475364202 0.0744403821588431 0.8346782397623851 255 255 255
0.7116510545327216 -0.0521576226102805 1.4362362894457368 255 255 255
0.7107809662464278 -0.0461056248785542 1.4385090598771741 255 255 255
0.7104551555082963 -0.0232325628373771 1.4356434469395176 255 255 255
0.7746886224282385 0.0958890247151339 0.9381787646082387 255 255 255
0.8075896780676350 0.1849036331313165 0.6956490493461035 255 255 255
0.7752465132567788 0.1521754627391715 0.9258055272211013 255 255 255
0.7786283459000274 0.1678277940158050 0.9015159171350435 255 255 255
0.7937820220543673 0.1941399742969763 0.7853378397408960 255 255 255
0.8026124445860656 0.3088433666502106 0.7223509670644019 255 255 255
0.7720253549522778 0.2928880841506378 0.9434761228151050 255 255 255
0.7866031268497404 0.3330016015957366 0.8359228950055329 255 255 255
0.7168605536540944 -0.3194155392652724 1.4244902040355232 255 255 255
0.7187198734483976 -0.3153019210195357 1.4092346365395865 255 255 255
0.7581954204196295 -0.1965290760683021 1.0903102917082741 255 255 255
0.7829162502403146 -0.1484051707637879 0.9027578795528284 255 255 255
0.7752055497279957 -0.1567495402183452 0.9533447362305584 255 255 255
0.7508794853664145 -0.2767444814284443 1.5197776575704245 255 255 255
0.7361488140921759 -0.2100740096421345 1.2720000857865807 255 255 255
0.6340001332878353 -0.2431181294412071 1.4341535255261988 255 255 255
0.7251313715463859 -0.2189585800622673 1.3353006276424972 255 255 255
0.7107009092701588 -0.2235669279753949 1.4367976012859032 255 255 255
0.7292386130018577 -0.1910502635412908 1.3072102902261329 255 255 255
0.6962357622811406 -0.2125918927174217 1.4453058640990051 255 255 255
0.7053878859429314 -0.2103996142960032 1.4356590315898163 255 255 255
0.7066317768701601 -0.2063162775549236 1.4941993121866135 255 255 255
0.7069322630544741 -0.2003155807779098 1.4794647578955959 255 255 255
0.7227612904140379 -0.1506488724933153 1.2508045200892302 255 255 255
0.7066737744539304 -0.1973539364451412 1.4886526509707467 255 255 255
0.7033546150552867 -0.1729258615045960 1.3811743432846146 255 255 255
0.7087225347891248 -0.1569003807227660 1.3445623013025720 255 255 255
0.7204145204883452 -0.1383075906852590 1.2787480165575185 255 255 255
0.6169636636984421 -0.1794392542403558 1.4623021129623339 255 255 255
0.7105456393605496 -0.1464390605678368 1.3663958512445058 255 255 255
0.7991358332074963 -0.0051795797919358 0.7693216648123107 255 255 255
0.6503365763159685 -0.1635820374185588 1.4936423406051986 255 255 255
0.7319958405464986 -0.0982333032469095 1.2837542134322861 255 255 255
0.6635187236478401 -0.1430107254964461 1.5103254555074379 255 255 255
0.7326117462628947 -0.0878948363822643 1.2867699278420530 255 255 255
0.7110874767287232 -0.1216984477423944 1.4854758537481914 255 255 255
0.7005397292351745 -0.1242246262100853 1.5260152636570203 255 255 255
0.6934731793069915 -0.0888771069322529 1.5879907555839325 255 255 255
0.7139484600341874 -0.0497262322863791 1.4257559881342801 255 255 255
0.7108632077176616 -0.0517552303087513 1.4452725373878939 255 255 255
0.7083752751552826 0.0165858849153216 1.4451815643081123 255 255 255
0.7688468841227607 0.2784717759634254 0.9646172051162147 255 255 255
0.6914914350606995 -0.2500411961300348 1.2081923457591439 255 255 255
0.7196896995493880 -0.2754596650460451 1.3993217669016733 255 255 255
0.7473628490189528 -0.1961117490288010 1.0395873302873764 255 255 255
0.7587111228767012 -0.1812346653598785 1.0873290925351486 255 255 255
0.6836148517404013 -0.2531644531683632 1.4374184605721467 255 255 255
0.7632143861142615 -0.1628829710630117 1.0214436619989020 255 255 255
0.7633886646010339 -0.1657157909131527 1.0444231631787064 255 255 255
0.7472059057482561 -0.1805340180696179 1.1744135288596655 255 255 255
0.7066886068192468 -0.1921033730714285 1.4949620799844325 255 255 255
0.7025655953995855 -0.1354230654718158 1.4428752396646143 255 255 255
0.7150964641680120 -0.1214617048626873 1.4079894979305230 255 255 255
0.7724661675804829 0.0340778455342782 0.9372089239398734 255 255 255
0.7715325423172692 0.0517167577327187 0.9580445650410236 255 255 255
0.7733104827742024 0.1452226736253924 0.9403522938695824 255 255 255
0.7890761583885386 0.2189527493343792 0.8246994609359026 255 255 255
0.7717673226798609 0.2936913628023144 0.9443893476348910 255 255 255
0.8017959225080109 -0.1745541003611634 0.7585264388740118 255 255 255
0.7062868859509068 -0.2316697424389347 1.0680412451466914 255 255 255
0.8090389485245950 -0.0772632614984647 0.7053557704776213 255 255 255
0.7057331660025454 -0.2245299267066110 1.4334420104244323 255 255 255
0.7295400080841663 -0.1918721856039821 1.3083902528154578 255 255 255
0.7065956405498461 -0.2168237588585509 1.4221246599386923 255 255 255
0.7049776831421593 -0.1751967284512806 1.3717076574073124 255 255 255
0.6806381256556211 -0.1899263445654489 1.4869778518443777 255 255 255
0.7107009022884441 -0.1804571517390321 1.5111575156946628 255 255 255
0.7157706425710479 -0.1395773231481936 1.3322164479465357 255 255 255
0.6874065393396069 -0.1706807538187103 1.4983607851704974 255 255 255
0.7081025698001611 -0.1654421277478626 1.4827448764022861 255 255 255
0.8013798737316067 0.0127877740192740 0.7445022040558570 255 255 255
0.7318027611419067 -0.0982687384032408 1.3108597942434341 255 255 255
0.7338364740587749 -0.0869539517454090 1.2580704071128852 255 255 255
0.7320220824496744 -0.1207188204861582 1.4487453871865341 255 255 255
0.7104582593645293 -0.0516887385446078 1.4452945618319057 255 255 255
0.7092694008214693 0.0174710245404552 1.4474085887028405 255 255 255
0.6863627804817338 -0.2753532287116478 1.2004896056505097 255 255 255
0.7098541264682154 -0.2119003080209823 1.4892938303822074 255 255 255
0.7051050875511591 -0.2116214717527279 1.5149617369413966 255 255 255
0.7089815566946118 -0.1484888388479992 1.4419460515034412 255 255 255
0.7327699422869336 -0.1103790825575457 1.1397559224648375 255 255 255
0.7022736378514209 -0.2391292378657321 1.0773631540411599 255 255 255
0.7125004066157601 -0.1381804282676238 1.3508696286520632 255 255 255
0.7048905255421829 -0.1509958498484519 1.4336260696118437 255 255 255
0.7005286266050526 -0.2392984245640830 1.0756433071066667 255 255 255
0.7364499344911124 -0.3338797896179759 1.2810148972091469 255 255 255
0.7157911565072865 -0.2636160540983399 0.9905404349319764 255 255 255
0.8333739494272905 -0.1235447502306199 0.5373232554954690 255 255 255
0.6859153136008986 -0.2544972603416468 1.1981199568632388 255 255 255
0.7204387991170509 -0.2763027176761950 1.3893669693322104 255 255 255
0.7178842871981850 -0.2704846080056591 1.3787103254246271 255 255 255
0.7527222327714516 -0.2161595701460138 1.1351687950358791 255 255 255
0.7225047747153901 -0.2653837271317550 1.3588341963206971 255 255 255
0.7380979840179455 -0.2448412251917487 1.2669928427515562 255 255 255
0.7784638211334023 -0.1636025188299312 0.9350628249482306 255 255 255
0.7469499463666085 -0.2163073162655867 1.1845272118000036 255 255 255
0.7245713710736332 -0.2515359889595769 1.3693805487964870 255 255 255
0.7447595962678660 -0.2031094920259054 1.1928771273621228 255 255 255
0.7362391343945184 -0.2183358010177853 1.2631327044179663 255 255 255
0.7294632575745177 -0.2215569456697737 1.2951124080838974 255 255 255
0.7527806021038401 -0.1880187003310112 1.1409118493113137 255 255 255
0.7260469827087352 -0.2281351736910552 1.3424510087771782 255 255 255
0.7724937649817771 -0.1511744523268415 0.9907755697598850 255 255 255
0.7247031593761375 -0.2198584385687389 1.3434614782020693 255 255 255
0.7316747813959770 -0.2087946679912725 1.2944722830694066 255 255 255
0.6792945677219784 -0.3095380900409471 1.7658024616001957 255 255 255
0.7225930234572164 -0.2198735671877793 1.3576379133848766 255 255 255
0.7698411518347630 -0.1338026199938273 0.9940775340565703 255 255 255
0.6169967644823908 -0.2306173933394216 1.4321418364169938 255 255 255
0.7534235807538792 -0.1575369309074240 1.1218586389854663 255 255 255
0.6958826277336101 -0.2233178155080559 1.4416041307162724 255 255 255
0.6810872182488064 -0.2805889350279682 1.7234536200009620 255 255 255
0.6831617450653085 -0.2758122267257609 1.7057819610639273 255 255 255
0.6792139365934474 -0.2819583189296965 1.7459176787257091 255 255 255
0.6800360701377783 -0.2645227524500984 1.7319080452828886 255 255 255
0.6805751109307061 -0.2554170607015307 1.7278416884973691 255 255 255
0.6741401820561050 -0.2674198084830526 1.7887010145941851 255 255 255
0.6863300127758523 -0.2520983451104456 1.7189092796071259 255 255 255
0.7969257209424310 -0.0461784568681052 0.7894995842714203 255 255 255
0.7121636257683388 -0.1920899440327790 1.4614334555622026 255 255 255
0.6839555213666626 -0.2390397025215993 1.6979732560130307 255 255 255
0.6918130810339576 -0.1874532553642557 1.4570624434449344 255 255 255
0.6741870837198467 -0.2499838217745534 1.7768000724945796 255 255 255
0.6703140973305093 -0.2449559145271889 1.8043586436758097 255 255 255
0.6724533466674556 -0.2427481943252910 1.7956772840606030 255 255 255
0.6738724819029231 -0.2394221577697921 1.7845615724898141 255 255 255
0.6780821812353713 -0.2276957032607171 1.7394963348781782 255 255 255
0.5901192924838305 -0.1759165788146360 1.4530690427312525 255 255 255
0.6787309290804204 -0.2268342692449393 1.7456158315184922 255 255 255
0.7068902894355871 -0.1484784159788326 1.3852635297151146 255 255 255
0.5756988435501147 -0.1739069296400809 1.5025946273931323 255 255 255
0.6811565452271959 -0.2030741427703757 1.7189829652548456 255 255 255
0.5863017839510860 -0.1606148084655528 1.4945284786365738 255 255 255
0.6810933295521918 -0.1915444205880060 1.7116551325460529 255 255 255
0.7273511709552474 -0.1045893916912027 1.3162860341302713 255 255 255
0.7710409403195442 -0.0272598535965909 0.9827407452735195 255 255 255
0.7220699873974015 -0.1081178183223969 1.3542035411847069 255 255 255
0.7557215917524742 -0.0467533428457995 1.0720836817838937 255 255 255
0.7091315272505536 -0.1298974361832255 1.4682620623448943 255 255 255
0.6805274331889435 -0.1828987900921080 1.7147955333749680 255 255 255
0.7068888969964715 -0.1248064118915169 1.4708958222896267 255 255 255
0.6764209272284731 -0.1817941662778619 1.7580098151691754 255 255 255
0.6755065575287007 -0.1766795940479783 1.7517419254021864 255 255 255
0.6908671071360970 -0.1296691146500299 1.6054181048888481 255 255 255
0.6773016296610054 -0.1594580782648712 1.7470313940122963 255 255 255
0.6909137863146790 -0.1236820596973100 1.6044160273948225 255 255 255
0.6918111201807943 -0.1226604738293167 1.5934125236755206 255 255 255
0.6936386785262236 -0.1182531302016216 1.5757496142454948 255 255 255
0.6962455189844592 -0.1144979276065560 1.5589350831964461 255 255 255
0.6711387455018695 -0.1631271546309713 1.7934961260647593 255 255 255
0.6848819169144118 -0.1275252012674479 1.6180814173082818 255 255 255
0.7133023672857783 -0.0843417182075820 1.4282967684029890 255 255 255
0.6890691026197171 -0.1216419774659326 1.6228980795671699 255 255 255
0.7114462454540714 -0.0805767765978281 1.4473900946296487 255 255 255
0.7963718891212714 0.0640393550062142 0.7871917855736659 255 255 255
0.6801438790982736 -0.1354976635427668 1.7151498828722400 255 255 255
0.6706326952797501 -0.1474620714340765 1.7969766736724120 255 255 255
0.6684067273596916 -0.1514931260104551 1.8158254858541261 255 255 255
0.6742422934773513 -0.1373007482953406 1.7502147898536680 255 255 255
0.6753630082600428 -0.1335151758125984 1.7551758409023390 255 255 255
0.6745722504772907 -0.1318460006850733 1.7649713959037971 255 255 255
0.7808618686940791 0.0602927027874209 0.8931838313451501 255 255 255
0.6760435950155421 -0.1125455756458599 1.7475769750407137 255 255 255
0.6677937476703590 -0.1256027419725995 1.8132654358814824 255 255 255
0.6774193449024603 -0.1092113519022251 1.7397508625316589 255 255 255
0.6722650131909861 -0.0940474777471879 1.7827842202087367 255 255 255
0.6740134595747154 -0.0902492654808304 1.7653178679734434 255 255 255
0.6634207915005703 -0.0868402214100170 1.8474527899255371 255 255 255
0.6669791942910359 -0.0713469736336804 1.7895207811463929 255 255 255
0.6751859254497647 -0.0554321953690243 1.7448159520919830 255 255 255
