ply
format ascii 1.0
element vertex 688
property double x
property double y
property double z
property uchar red
property uchar green
property uchar blue
end_header
-0.7049118289666332 0.3340465036156992 0.9133872630075821 255 255 255
-0.5601913340312983 0.3142331994694016 0.8304663911111430 255 255 255
-0.6801047154148159 0.3612706340021514 0.9276734031543752 255 255 255
-0.6259120696651257 0.3036482611422997 0.8062642412392886 255 255 255
-0.7249415843887126 0.3723429217658318 0.9664147989174730 255 255 255
-0.6296988361999070 0.3558989370025003 0.9073280107038286 255 255 255
0.2682097279518776 0.2045102324584205 0.3297103501665157 255 255 255
-0.6132227500064942 0.4377001005900789 0.9813300708312109 255 255 255
0.4501372789215892 0.8215135421397366 -0.0842545706390046 255 255 255
0.2249659920563651 0.5339845108551060 0.2792828508368999 255 255 255
0.2404955461159507 0.5378467073344253 0.3486301633972810 255 255 255
0.2392735960067682 0.6619744932384890 0.2714884630534229 255 255 255
0.5784171487462686 0.8884129075351410 0.1883789838476631 255 255 255
0.4830119161016899 0.8247763813509623 -0.0549220476671148 255 255 255
0.2710280339935878 0.6538310683154691 0.2726056737544411 255 255 255
0.3827470051044886 0.3332991146856057 0.4502774453211714 255 255 255
0.1564871119359488 0.6648509236528639 0.4036647874619632 255 255 255
0.4823605986533718 0.7973212949997558 0.0536048773494737 255 255 255
-0.0546318401792911 0.5123854195429676 0.8606624795312054 255 255 255
-0.4281196427894400 0.6157446203616388 1.1348110141358241 255 255 255
0.2518523691316403 0.4730933744124428 0.6565943393303826 255 255 255
-0.2044743631295027 0.6314728245803849 1.0640585861581453 255 255 255
0.8275009884049638 0.6875959594715795 0.5224479837859519 255 255 255
0.4032297313959585 0.7200808718786347 -0.0910257917930691 255 255 255
0.4192928522383311 0.7651139098013326 -0.0917529245299228 255 255 255
0.0427606833752624 0.2812620917931667 0.5182024727607200 255 255 255
0.4598912037294367 0.8217788488069022 -0.0817558038600778 255 255 255
0.2648151992146646 0.6460402979898601 0.2852147133333287 255 255 255
0.4442118535618693 0.5230064944490742 0.6327141820012727 255 255 255
0.5884884537172530 0.7500686815065380 0.1822665358986266 255 255 255
0.8166415836862448 0.7785431958712721 0.4401942522935531 255 255 255
-0.7516977568450898 0.3432322332396858 0.9442500216949199 255 255 255
-0.7054120096962997 0.3329054101174407 0.9144577213225134 255 255 255
-0.6533785167033463 0.3605249841490705 0.9253627058234475 255 255 255
0.3143077798655731 0.1213777939126396 0.2445353313587370 255 255 255
0.4456646918093963 0.2199289198541230 0.2740179595329746 255 255 255
0.2392050961230332 0.6652107091742678 0.2687882000199231 255 255 255
0.2690835595066510 0.6513015544446432 0.2647411780903468 255 255 255
0.4827884418637636 0.8271637265193055 -0.0521073455328957 255 255 255
0.3008918522885011 0.6496045128876773 0.3326378729822750 255 255 255
0.3144352874937333 0.6417691978281610 0.3328143703753490 255 255 255
0.3941912746317895 0.7397576549195319 -0.1068138596015951 255 255 255
0.3987708846563614 0.7273948736217064 -0.0948958674630943 255 255 255
0.4053708067298026 0.7474788569274131 -0.1061420052597905 255 255 255
0.4031793277934166 0.7202019215525818 -0.0909614836297129 255 255 255
0.3488011912358948 0.6998188959920246 -0.0348333296198007 255 255 255
0.1926379776246474 0.5197292093235077 0.3121533990921215 255 255 255
0.2591786809349230 0.5274556719129535 0.2812431331043008 255 255 255
0.4868639386118136 0.6876939744854402 -0.0050797108297680 255 255 255
0.7389597558722016 0.2437661640775026 0.1630122712133186 255 255 255
0.3086776813374278 0.5575578859965123 0.3885438194759565 255 255 255
0.4524489707253156 0.7828960219884558 0.1047132116451444 255 255 255
0.9082571626802292 0.6571541270068550 0.5379278190302301 255 255 255
0.3952427107867176 0.1825013169936893 0.2531571154871228 255 255 255
0.1389539333219600 0.5381564128061598 0.3281294852773300 255 255 255
0.2347489485225704 0.5475159488522721 0.2811655449770516 255 255 255
0.1520903636058915 0.6457962675488886 0.3805487249776789 255 255 255
0.2928924258573264 0.6061257296984142 0.2996042361935354 255 255 255
0.2767588704638664 0.6547020764779816 0.3258452619333578 255 255 255
0.3081242726388789 0.6445647134905794 0.3307897552312333 255 255 255
0.5260373732153976 0.7593590558550444 0.0626083523269320 255 255 255
0.3349134442820407 0.1443744401197762 0.2337171932268216 255 255 255
0.8410298159720639 0.6937822664485509 0.5164145965258413 255 255 255
0.3615137445518476 0.1444816327608355 0.2166919567380103 255 255 255
0.3916188809199763 0.7841837528592912 0.0022758189275375 255 255 255
0.2850290747049933 0.6673727868937220 0.3544518802677721 255 255 255
0.5054624084869219 0.7438382525777558 0.0780120495189054 255 255 255
0.2844527269665988 0.6709901657652324 0.3519744602088934 255 255 255
-0.7140512848065939 0.2909353455475738 0.8556536711761211 255 255 255
-0.7032702119580829 0.3073848182227774 0.8790513566444389 255 255 255
-0.7441573569983757 0.3212779621436033 0.9136817953326792 255 255 255
-0.7692545336901269 0.3306361420310395 0.9365539116395247 255 255 255
-0.7571546681002594 0.3370306046308862 0.9255846126018739 255 255 255
-0.7247685137103463 0.3412645649234136 0.9290359486667299 255 255 255
-0.7120921730527785 0.3539263236362213 0.9344979450304649 255 255 255
-0.6180211671246454 0.3376614097534389 0.9005333447481298 255 255 255
-0.6499093136732910 0.3628487921635539 0.9449073237422994 255 255 255
-0.4767773703104172 0.3511589151644845 0.8318319014104176 255 255 255
0.1539511980153523 0.1816275911279014 0.3829709404942482 255 255 255
0.1960826672866922 0.2364680228798193 0.3910012588920608 255 255 255
-0.4770686222387113 0.4365652693578426 0.9420841645727336 255 255 255
0.2585499206523387 0.6635770898158881 0.2172887047052967 255 255 255
0.2589955769379024 0.6633119842060928 0.2217912065350234 255 255 255
0.2636360419911981 0.6662742568431841 0.2148442027232933 255 255 255
0.2700090330924603 0.6539591245046594 0.2484911363664519 255 255 255
0.2923370911082088 0.6296388674435676 0.3052782165978876 255 255 255
0.4760457548549426 0.8311357903130197 -0.0447268621319842 255 255 255
0.2545265802951912 0.6592518357360455 0.3329620268332221 255 255 255
0.1986531437016126 0.6678287719528271 0.4097330315272529 255 255 255
0.5006281360280904 0.7771066346053643 0.0468224472086582 255 255 255
-0.1833794897788263 0.5595766727080456 0.9706528024899690 255 255 255
0.1769912376558791 0.6800005508683787 0.9220077373065243 255 255 255
0.6397776670643363 0.7740469015834062 0.2287760793078516 255 255 255
-0.7802575718807780 0.3098237281622955 0.9095498123179784 255 255 255
-0.7797923973132059 0.3150096541565630 0.9199412951300525 255 255 255
-0.6764389161306248 0.3359397565520865 0.9015691431768751 255 255 255
0.3815806511164932 0.0964980176338814 0.1484244200941580 255 255 255
0.4075277402264085 0.7556065285196378 -0.1067936766709205 255 255 255
0.3978206620077691 0.1765184429349609 0.2446599536814382 255 255 255
0.1408399690124185 0.5302207718331431 0.3313227614088134 255 255 255
0.2953632995294215 0.6290431281716193 0.3017229105289809 255 255 255
0.4788788330388676 0.8305625139626625 -0.0357801630164598 255 255 255
0.4374830154979699 0.3727965128462234 0.4616978869939046 255 255 255
0.4534196803120343 0.7829589413406318 0.1051548252081350 255 255 255
0.5600598862401275 0.8137124868487445 0.1586562309326875 255 255 255
0.5595114346147323 0.8418661427824086 0.2125324125341077 255 255 255
-0.6529396045212823 0.3611576282359548 0.9243732608764654 255 255 255
0.2642404579955580 0.1327101435898754 0.2491630945005241 255 255 255
0.2177704570531631 0.2116784143764789 0.3589534986944862 255 255 255
0.1378400212500708 0.2581057026218048 0.4474678007065052 255 255 255
0.1526234179949562 0.6500270904296030 0.4072303357325993 255 255 255
-0.7183820155563305 0.3178966512123265 0.9073312473054802 255 255 255
-0.5652450117459171 0.3057175728446389 0.8245282426472116 255 255 255
0.0235379292956250 0.2452547312174147 0.3805886330743533 255 255 255
0.0570981074610437 0.3483980282002739 0.3907703766766741 255 255 255
0.4046269471945836 0.2827750475920183 0.3692108231644329 255 255 255
0.2690841345498738 0.6733488371574410 0.2085511103173499 255 255 255
0.1165741945209957 0.6348589697031146 0.3967464302422643 255 255 255
0.3042605427020741 0.6034463511384560 0.3449818906088025 255 255 255
0.2786266471194656 0.6782790314068468 0.3675406320542240 255 255 255
0.5706361667648401 0.8025086708928129 0.1410911117917446 255 255 255
0.5642400290262777 0.8139401833723872 0.2133106374896343 255 255 255
0.5417078380732905 0.8275336042660575 0.2276477463359678 255 255 255
0.2057771213306414 0.5262439490184612 0.2835569298984133 255 255 255
0.4790090952008141 0.4871490581634341 0.1055320528524352 255 255 255
0.4347463120916416 0.2982064833025169 0.3714538452093530 255 255 255
0.4796686962031900 0.8233771361392617 -0.0546210852177758 255 255 255
0.4380101039451461 0.3180299431942899 0.3847338986731756 255 255 255
0.2797374411701616 0.6617491112828953 0.3447940097291600 255 255 255
0.3127725582499745 0.5276835036522396 0.0265424843720554 255 255 255
0.2731110979300673 0.6483349965767520 0.3103867587095941 255 255 255
0.4759151769938166 0.8413723086796896 -0.0072723006334356 255 255 255
0.0718756150230693 0.3039836622583039 0.5321231131440864 255 255 255
-0.8088289303917229 0.2812577587509359 0.8908235375726079 255 255 255
-0.7593491717690535 0.2718484089215965 0.8599963200800484 255 255 255
-0.7474494999717476 0.2847904692029206 0.8693476102960336 255 255 255
-0.7258585658801442 0.2770874294103685 0.8578405001487770 255 255 255
-0.6776793079504255 0.2716405830850093 0.8302008718035943 255 255 255
-0.7573657638904692 0.3062334798210458 0.9074967268392271 255 255 255
-0.4839732794178424 0.2445509977954643 0.7148953749564839 255 255 255
-0.7137287804534402 0.3557299076770892 0.9002862804240550 255 255 255
-0.7075097842234239 0.3305602531641636 0.9178637975005017 255 255 255
-0.6083678892748274 0.3171103780510229 0.8439714717046556 255 255 255
0.2599936268999445 0.2728754762479448 0.2395440421619752 255 255 255
-0.5058392398247147 0.4058955691446791 0.8968339199170998 255 255 255
0.3308362614081126 0.2038882101675661 0.3045572810011565 255 255 255
-0.0938395119913600 0.3814206627450822 0.7141244659670267 255 255 255
0.3919220158056698 0.2808656871581194 0.3691875149259165 255 255 255
0.1191102445882575 0.5402978936848870 0.4406263557608192 255 255 255
0.2592687272619867 0.6592844545348973 0.2257340607561931 255 255 255
0.2254519831709949 0.5759808638922337 0.3882387293374343 255 255 255
0.2588048862532339 0.6289871751333962 0.3085238972824413 255 255 255
0.1757789289991152 0.6454294248821668 0.3749041021756199 255 255 255
0.2840666038341375 0.6409833591498639 0.2774021897105392 255 255 255
0.3190336268993406 0.6365314597411142 0.3656296224541791 255 255 255
0.5096318747207658 0.7752650233367404 0.0455964652314309 255 255 255
0.5919115829630213 0.7562985420611541 0.1958234268566187 255 255 255
0.4008412879550166 0.6069032288573211 0.7259785302450110 255 255 255
-0.6726643431380097 0.2432475956291533 0.8221734990081622 255 255 255
-0.7258131636732816 0.2771774984090083 0.8587312544508761 255 255 255
0.3253460002742066 0.5746023690011555 -0.0835657350460765 255 255 255
-0.5956126796776982 0.5163210148252402 0.6904890149827230 255 255 255
-0.6470615080973232 0.3034167319885164 0.8534860994910183 255 255 255
-0.0644227500626844 0.1785195401057535 0.4360846393882767 255 255 255
0.3513182462880209 0.7792946171921171 -0.1399240171898828 255 255 255
-0.7162105965940420 0.3487596626449623 0.9414470650526781 255 255 255
0.1376256679621342 0.2242767386207870 0.4005271531597564 255 255 255
0.3170754324150913 0.2071992221657055 0.3082787777346372 255 255 255
0.1118783384557567 0.3114009677740484 0.5076475909785714 255 255 255
0.3202594263962055 0.2991470535985741 0.4179675422929705 255 255 255
0.4326362916040165 0.8111317340288549 -0.0993201074288685 255 255 255
0.3907951769667771 0.7456341540575495 0.0186319102594926 255 255 255
0.4593638338347075 0.7973077922067271 -0.0613612900988970 255 255 255
0.2946540493814445 0.6423907909610662 0.3168460142025946 255 255 255
0.4822335774967357 0.8453065618353488 -0.0450123798881217 255 255 255
0.4826780191957867 0.8355512199027895 -0.0285789798879168 255 255 255
0.4860666809618475 0.8463506987779930 -0.0187885787328497 255 255 255
0.4840996347455242 0.8507180418110654 -0.0137415542461952 255 255 255
0.3269387877518710 0.5062058107276783 0.6673661192399010 255 255 255
-0.7458812430209036 0.3191246429504133 0.9171980176142966 255 255 255
0.1770353087160430 0.1227435235271450 0.2710127654426202 255 255 255
0.1857282122882027 0.2362091067060543 0.3977705309350252 255 255 255
0.2537668820313224 0.2218658736819492 0.3568601499863711 255 255 255
-0.0003942919222313 0.1096057859658970 0.3203289802806353 255 255 255
0.3300349862865293 0.5761605745062290 -0.0870392399684761 255 255 255
-0.7454081090148179 0.3201945807063566 0.9159626113995500 255 255 255
0.3374539240871197 0.7029642487295271 -0.0414939626097746 255 255 255
0.3580613916104100 0.6983760543075068 -0.0077085271431437 255 255 255
0.4802321167139676 0.6627184018930234 0.0031162871187262 255 255 255
0.4847623371369760 0.8226988639887824 -0.0557280962001778 255 255 255
0.4798753269429392 0.8301077544791147 -0.0359134695252337 255 255 255
1.0427213082478812 0.1298238784548804 0.2868499039688079 255 255 255
0.5681536843206416 0.8138402223776309 0.1280533201105833 255 255 255
0.3570569539756778 0.2021241132675697 0.2842779822841220 255 255 255
0.1901793449015869 0.5023846176939628 0.3039443933091803 255 255 255
0.4888092770617476 0.4515208979600764 0.1386055611863508 255 255 255
0.1401899416751036 0.6521131538147955 0.3925017128029964 255 255 255
0.3073488336076835 0.6638022762192293 0.3029048698696641 255 255 255
0.4733185898799634 0.8399011880899212 -0.0508959292181732 255 255 255
0.4522147666475572 0.8229834730567710 0.0659764636989696 255 255 255
0.2534515974555238 0.6606810038883246 0.2473232155559479 255 255 255
0.4813675519030447 0.8294478542851693 -0.0358453403724406 255 255 255
0.2830572284707369 0.6535130598929193 0.3890157774010632 255 255 255
0.3521558001739244 0.4960815242820678 -0.0406687583673903 255 255 255
0.3617721041719688 0.7531677541202071 -0.1191331095710235 255 255 255
0.2745600729344915 0.6247314948985832 0.4476009656576707 255 255 255
0.1982710381648189 0.5489782480910534 0.2929022317552779 255 255 255
-0.7809906783669709 0.2482857192936045 0.8329136907168375 255 255 255
-0.8045267017154245 0.2506050995223710 0.8582477831494835 255 255 255
-0.7687049652025664 0.2595925726255786 0.8526103101252502 255 255 255
-0.8094835063435575 0.2807132547086155 0.8920362416620300 255 255 255
-0.9295220621342932 0.1393015499874588 1.0705558352936184 255 255 255
-0.7140964352459651 0.2938491922406588 0.8725885773597177 255 255 255
-0.7673745909429819 0.3243534472926601 0.9248487675931294 255 255 255
-0.7574249029210254 0.3368673713448258 0.9369412755320496 255 255 255
-0.7389900472475723 0.3549026169729892 0.9568924988882586 255 255 255
0.3949897825111892 0.7475294656830267 -0.1049874954193286 255 255 255
0.3059014096917405 0.2591715188532646 0.3855131279580082 255 255 255
0.1996341277053073 0.5281008407101151 0.2898467250291272 255 255 255
0.1594059272554063 0.5385277445306542 0.3503027240015228 255 255 255
0.2702656879268837 0.4992305418300234 0.2957261581257846 255 255 255
0.2686683564578267 0.6552105689735015 0.2521860726985139 255 255 255
0.9881452761078463 0.0505233077562038 0.2837545851480989 255 255 255
0.4883681094134589 0.3697838206624000 0.4324303579530144 255 255 255
0.3120590896502478 0.6242670641539587 0.3265409903840260 255 255 255
0.2699605908883740 0.6690371138496261 0.3590939752378404 255 255 255
0.3163261792793062 0.6631515614827563 0.3460218767713883 255 255 255
0.4242099178862434 0.3322018205657093 0.4905847501984305 255 255 255
0.2635420752511051 0.5709486380355635 0.7971612016963725 255 255 255
-0.2269014168416836 0.7585317727131198 1.2250311190942966 255 255 255
-0.0998638833919878 0.0934661852805965 0.3433107602996461 255 255 255
-0.7047282136098545 0.2696534720330845 0.8690888369988414 255 255 255
0.0711095271261719 0.3038685394757294 0.5368390667206597 255 255 255
0.4372435254532459 0.7891707734082392 -0.0790433341363270 255 255 255
0.4680265783176560 0.8117986056066089 -0.0656286141001621 255 255 255
0.4772050800122880 0.8390935714605838 -0.0636144995831289 255 255 255
0.4980538049859711 0.7567893410496289 0.0432211082922548 255 255 255
0.8851344368622804 0.6256210130654125 0.5355851163722249 255 255 255
-0.7143710730824324 0.2910671400489093 0.8547697145455402 255 255 255
-0.6934943705293506 0.3157612652128563 0.8866474807466531 255 255 255
-0.6799005453292182 0.3296981573816993 0.8976636259552606 255 255 255
0.1920647377318971 0.2303114921064200 0.3851651841486223 255 255 255
0.1128790624991134 0.2646732585195863 0.4640035361466008 255 255 255
0.4331587364743847 0.7898843784165783 -0.0917747107690566 255 255 255
0.4645853722602316 0.7038506860942946 -0.0102295686726054 255 255 255
0.2283683462572323 0.6837323125667609 0.3444255547002939 255 255 255
0.3031121028400765 0.6539941013114543 0.3747116400093589 255 255 255
0.5283175989278401 0.4343991420031799 0.4915685091034767 255 255 255
0.5492313291106182 0.7102805616526425 0.1253717014269897 255 255 255
0.4152486706045195 0.6369275903469038 0.7778804032804345 255 255 255
0.3611044484033528 0.6654364153403662 0.8415480082267095 255 255 255
-0.7773436692479390 0.2823538761493838 0.8518667561653457 255 255 255
0.2031146734599165 0.1562024292680961 0.2949009034028154 255 255 255
0.2097330024127868 0.2545359801474212 0.4132693475188760 255 255 255
0.1463365407006272 0.5419227742730754 0.3361897823093329 255 255 255
0.2369617377500575 0.6461370756175953 0.2478317120892974 255 255 255
0.2306249036932675 0.6788843314460298 0.3465411128371603 255 255 255
0.4221851547057874 0.7734023213014380 0.0545235003775916 255 255 255
0.2700110159145197 0.6529931534360855 0.4088614278216767 255 255 255
0.4338330959673509 0.7960302570229657 0.0588324760487636 255 255 255
0.4855283997965607 0.8424233846156657 -0.0443413634515748 255 255 255
0.5090403278212969 0.7686293383246348 0.0453691450830096 255 255 255
0.2885096198937560 0.5866072273732974 -0.0727614810240260 255 255 255
0.3463705205907980 0.5659387552117012 -0.0944093689152825 255 255 255
0.2987606065347936 0.6606468978287445 0.4031894537514020 255 255 255
0.4814875464975890 0.8356671288056674 -0.0434851564664254 255 255 255
0.4830632491554425 0.8338831153298543 -0.0305436201392157 255 255 255
0.4845003934768819 0.8431798159363737 -0.0446438509018749 255 255 255
0.4630670962058820 0.8191503771785318 0.0498517524126760 255 255 255
0.3531345239156976 0.1110954982843593 0.0417127704419881 255 255 255
0.3153912895018349 0.1402313834838376 0.2315356001930792 255 255 255
0.3256868036772045 0.2143353970758586 0.3167241424322356 255 255 255
0.1120550299334901 0.3209842676118200 0.5269971735636574 255 255 255
0.3172287909271034 0.5614734983275866 0.7326233554417740 255 255 255
0.4442348276025410 0.8474343334248564 0.0482255169468644 255 255 255
-0.8526485794625387 0.2264091911790267 0.8506183727029004 255 255 255
-0.3394731543893537 0.1005096708865665 0.4822171901814860 255 255 255
-0.8239207387817347 0.2350060015139683 0.8390650074967416 255 255 255
-0.8406858589012778 0.2418058375754235 0.8598565232380011 255 255 255
-0.6538721995390944 0.2059167006365925 0.7340685977462016 255 255 255
-0.8290448573363851 0.2539087494162802 0.8671921059594521 255 255 255
-0.8091840805614776 0.2470709784748628 0.8523982638191718 255 255 255
-0.8322483986644951 0.2552569521210639 0.8736759997442956 255 255 255
-0.8007222992688954 0.2569971133720976 0.8637090818804740 255 255 255
-0.7622182554843704 0.2722177407314064 0.8694027170354985 255 255 255
-0.7710412528153299 0.3208570504412833 0.9306201060337429 255 255 255
-0.7425264189180965 0.2903736916813511 0.8955532625266507 255 255 255
0.2898759872209062 0.2619250985371195 0.3814557358532298 255 255 255
0.1401069628214628 0.5816275676311378 0.3431245187077465 255 255 255
0.2432818756113591 0.6456308785356200 0.2913882204594103 255 255 255
0.1672192511637572 0.5742543975133464 0.4721123238965488 255 255 255
0.2671845051317590 0.6404328979920813 0.3171303839587090 255 255 255
0.3252598088687577 0.6090216821947934 0.3208103933092872 255 255 255
1.0121785886128905 0.4838916020536574 0.1033575998612294 255 255 255
0.2874276380803629 0.6538444228595139 0.3380429082226257 255 255 255
0.2151615627377570 0.6950387762069496 0.3600516260009812 255 255 255
0.2427070108990144 0.6704076093903133 0.3697666580077907 255 255 255
0.2120350944961515 0.6853911981502847 0.4023472853563419 255 255 255
0.3032595268492599 0.6463737191458847 0.3077504834444937 255 255 255
0.2913551966055259 0.6400291043692619 0.4141520927917881 255 255 255
0.2285901574559208 0.7125117483324583 0.3831592731022440 255 255 255
0.4792551888768424 0.7826361727051445 0.0741154440654896 255 255 255
-0.8239509402768732 0.2284736995446863 0.8329441932248365 255 255 255
-0.8253350018604961 0.2650186029051365 0.8790475642812488 255 255 255
-0.7507728449989344 0.2543365675638434 0.8316806007369664 255 255 255
-0.7588392429677615 0.2726383008676105 0.8588629855109104 255 255 255
0.0528082742894158 0.2313985930856379 0.4479388624135812 255 255 255
0.2088124470982216 0.2554111999770896 0.4124521746025636 255 255 255
0.0747397204106148 0.3214375251974051 0.5498201939518204 255 255 255
0.4261731524425603 0.7663404530104678 -0.0893644581455473 255 255 255
0.2006652160951949 0.2882916779629633 0.4924046228305944 255 255 255
0.1524962652195168 0.6477757333068244 0.4016490605235603 255 255 255
0.2131762401001005 0.6694048856948029 0.3683613090077316 255 255 255
0.4643168040161498 0.7697647065682283 -0.0345956345844853 255 255 255
0.2834372599656891 0.6394702833684622 0.3626500029242550 255 255 255
0.4745897391209151 0.7797605638262577 0.0730598998066361 255 255 255
-0.8361225974955886 0.2473968033173897 0.8619792703005076 255 255 255
-0.0998019711380546 0.0932037092710090 0.3435439946401342 255 255 255
-0.7903066559388545 0.2659809075011723 0.8655294560649933 255 255 255
0.3243259646258070 0.2599978274973549 0.3709306728133006 255 255 255
0.5042594923484378 0.3054128554391067 0.3529761445648782 255 255 255
0.3193892053257592 0.6516667906736782 0.3556044006822283 255 255 255
-0.1335835538480094 0.0818995950234669 0.3474269418496689 255 255 255
-0.1067019256148960 0.0866885402995194 0.3330107208106341 255 255 255
-0.7607215156437395 0.2988166053408765 0.8888808992186377 255 255 255
0.3293283035704091 0.5904753615547866 -0.1226225605112349 255 255 255
0.3390267003950185 0.5529711070910839 -0.0791659676613081 255 255 255
0.3433028487822902 0.1375249611730425 0.2243057311463943 255 255 255
0.3991698989799871 0.1338713764253029 0.1895600143574062 255 255 255
0.1926921198616824 0.6032754705479135 0.2829885673777852 255 255 255
0.2374992861887102 0.5971088359912131 0.3191384983192873 255 255 255
0.1558763660634099 0.6340354667501629 0.4077400384751257 255 255 255
0.1573498392916717 0.6727291574725722 0.3787492344139416 255 255 255
0.3634417571784031 0.5616355386300800 0.3877488338807350 255 255 255
0.4335413794947382 0.7882975804185984 0.0660188243775548 255 255 255
0.5547334447430714 0.8049456251369600 0.1621053573342999 255 255 255
0.6365583568021433 0.7631176824809360 0.2291327009478836 255 255 255
0.2966474025487571 0.5192933556450470 0.6865851267207290 255 255 255
0.4914844743998921 0.7675778876707171 0.0471586924187151 255 255 255
0.2834262546173081 0.5673485342612370 0.7571009684334662 255 255 255
0.6663789688179549 0.7303299780691590 0.2628747205644170 255 255 255
0.4510560897932159 0.1679299830744583 0.2129739260123564 255 255 255
0.2855426050895551 0.5883839481340347 -0.0632901002352960 255 255 255
0.4799480936554836 0.8483523856528645 -0.0188375555452307 255 255 255
0.1001156351797605 0.6000172200594882 0.3868875178332356 255 255 255
-0.7181252271157073 0.1675496771528486 0.7152295803872661 255 255 255
-0.8731709430532533 0.2029773843970020 0.8284791473932387 255 255 255
-0.8181067784364888 0.2038628669005966 0.8061883367583444 255 255 255
-0.7242422319101700 0.1873919832900341 0.7451329312980288 255 255 255
-0.8116134119375689 0.2111524538087792 0.8102073435499220 255 255 255
-0.8059444814984131 0.2178122269077514 0.8146919471432628 255 255 255
-0.8148927841484079 0.2376989685242981 0.8299135455868383 255 255 255
-0.7677626660500465 0.2304663872737791 0.8137106733861543 255 255 255
-0.7893746747256110 0.2462570952687493 0.8399551420889217 255 255 255
-0.7683432292681562 0.3205423346321625 0.9119375191267398 255 255 255
0.2281682433107548 0.1781069085152467 0.3149538271971863 255 255 255
0.2290277180545304 0.2917023969864929 0.4490067156004667 255 255 255
-0.4665771147555975 0.5160841225758181 1.0356876087534754 255 255 255
0.2306368853510321 0.5735812655126153 0.2778958085871608 255 255 255
0.4672737074012083 0.3676117668567009 0.4425971750820352 255 255 255
0.2517771573070959 0.6642474447125579 0.3340960409876175 255 255 255
0.2932857116884300 0.6552916366422252 0.3296317632716708 255 255 255
0.3144674653889012 0.6606363161116171 0.3310981436864608 255 255 255
0.3023151178160024 0.6603607138273659 0.3497673425959871 255 255 255
0.3196560056842337 0.6514815157056475 0.3544858630451984 255 255 255
0.2911414822218781 0.5726031471954229 0.6210536028686136 255 255 255
0.6706314753329126 0.6506860272973924 0.1532692222939386 255 255 255
-0.8049834615245635 0.1877903962575440 0.7805981236397277 255 255 255
-0.7908322290319774 0.2049973657503390 0.7968076326085622 255 255 255
-0.0997765714247212 0.0934474304285402 0.3435208485957588 255 255 255
0.2461871809497576 0.5228611160902460 0.2901360253873610 255 255 255
0.4115047656991511 0.7489081723666633 -0.1033227701404598 255 255 255
0.2995683443714692 0.5633048458689042 0.3972963796027178 255 255 255
0.2481697001293171 0.6734410511857618 0.3737848692395360 255 255 255
0.2660894403890133 0.6631956674362911 0.3875481274253758 255 255 255
0.2318677963965285 0.6873467402580360 0.4047049478515987 255 255 255
-0.7543852611570103 0.2457073235278600 0.8260909753335275 255 255 255
0.4130231754127423 0.4570355065212136 -0.2071477062314724 255 255 255
-0.7382150858292702 0.2951842302821728 0.8881703610015492 255 255 255
0.3018999859240203 0.2824082981348397 0.3961268063499013 255 255 255
0.2480438768399384 0.6438518374929636 0.2297093501492533 255 255 255
0.2332738554453826 0.6833315430835185 0.3359596562704326 255 255 255
-0.6904243183413272 0.1948072860195538 0.7376577945133347 255 255 255
-0.8195747319156492 0.2306388721985382 0.8521940800404701 255 255 255
-0.7233177763262866 0.2502066660454805 0.8221983500087404 255 255 255
0.2248235589322387 0.0792835354018102 0.2001479702433295 255 255 255
0.2629529083868039 0.2125382793681698 0.3394599049206040 255 255 255
0.5057617964180672 0.2965064603294021 0.3454413466562336 255 255 255
0.2681051488439354 0.6020568980669743 0.2722650800980464 255 255 255
0.4321196519724282 0.8001143686927659 -0.0879651474931680 255 255 255
0.2228525610084375 0.6896482773079811 0.3586334911797877 255 255 255
0.7967397256899256 0.3738700302876561 0.2273546776616184 255 255 255
0.5302973741853148 0.6889084716539449 0.0610539356903510 255 255 255
0.1969278805276886 0.7356646207926048 0.3302869790652636 255 255 255
0.4075062671710747 0.7881379002772713 0.0243823552412885 255 255 255
0.4671897196736108 0.7855762901266945 0.0712118024113013 255 255 255
0.5192588728196235 0.7696863722126164 0.0485565706157587 255 255 255
0.4570917991808670 0.7979744394148249 0.0676463565474609 255 255 255
0.4126085469227192 0.5797654824566294 0.7192087652924215 255 255 255
-0.7884441340045591 0.2394683971238267 0.8410421320649721 255 255 255
0.4408684381927266 0.7854044633784101 -0.0720810064061406 255 255 255
0.3051068039386546 0.6566575636920486 0.3662232454913372 255 255 255
0.2138607453537533 0.2232681045220772 0.3720191997583644 255 255 255
0.3478233472606149 0.2729144023448384 0.3760722244368537 255 255 255
0.4355025907526269 0.7811263075438886 -0.0777759684823423 255 255 255
0.3165602315229563 0.6620128936543708 0.2987428637081990 255 255 255
0.3113401077432432 0.6682698966262848 0.3140270710212203 255 255 255
0.2451164885809476 0.6907096741248608 0.3769545406194084 255 255 255
-0.8935741388684610 0.1797331698065756 0.8000578463587258 255 255 255
-0.8572580971855954 0.1895280577321961 0.8084675546548503 255 255 255
-0.8806830521348470 0.2016092187113099 0.8260857861752271 255 255 255
-0.8614026793457468 0.2167734345658410 0.8349486720981876 255 255 255
-0.8371001701764480 0.2437712437003783 0.8292826943530427 255 255 255
-0.8398833114784692 0.2429860752472930 0.8588805210160277 255 255 255
-0.7540277332391541 0.2465460174401701 0.8265475492444212 255 255 255
-0.3303788517030242 0.1422443291286211 0.5315348345471627 255 255 255
-0.7613386757331329 0.2697293731622414 0.8637754403353846 255 255 255
-0.7517855736707588 0.2787892477986134 0.8626657488824065 255 255 255
-0.7942362394450413 0.2961078735848943 0.9078710747211467 255 255 255
-0.7890361330218667 0.3058857009652423 0.9142582696593635 255 255 255
-0.6113032534532401 0.2843890321067946 0.8200279056816200 255 255 255
0.0978972598315577 0.3132864834057596 0.5305740324766237 255 255 255
0.2420545193946486 0.2871923356699932 0.4377666143847936 255 255 255
0.2371099451637866 0.2945753942884899 0.4463774334434767 255 255 255
0.1939328089093539 0.3099878898218691 0.4888174980807705 255 255 255
0.3439830853280199 0.3013157312556842 0.4142591455460618 255 255 255
0.2398597690009456 0.6390451274079201 0.2463330355103732 255 255 255
0.2561055478980663 0.6472190085910432 0.3218480261267871 255 255 255
0.2730521284307716 0.6606797029314571 0.2893907422283171 255 255 255
0.2883598395134612 0.6476520764098268 0.2929393505084334 255 255 255
0.2295188367938792 0.6840685854272355 0.3816423747719817 255 255 255
0.2662593304916356 0.6663324235059491 0.3594935744811636 255 255 255
0.3079569832052371 0.6664212048618303 0.3148261891717450 255 255 255
-0.8696325323121255 0.1772622491200575 0.7952324598038150 255 255 255
-0.6537239383874693 0.2054849128569076 0.7347821743085268 255 255 255
-0.0655930779463234 0.0937569524460642 0.3294392521740375 255 255 255
-0.8019413915489366 0.2844380454498889 0.8918724994715408 255 255 255
0.1761559557310400 0.1261746236085064 0.2695539795010411 255 255 255
0.2192869372790427 0.2746829512511924 0.4336293818361452 255 255 255
0.2317710927330310 0.2784809970801474 0.4315357517214173 255 255 255
0.1971309825058043 0.5544225588914884 0.2920798972947196 255 255 255
0.2326537113814887 0.5862937912141691 0.3385490874983471 255 255 255
0.2682619086338462 0.6608362142789801 0.2583080148547801 255 255 255
0.4554691511115372 0.8032701683577201 -0.0558892451804038 255 255 255
-0.8619525719283003 0.2156245228330698 0.8350262279195793 255 255 255
-0.7983398471475880 0.2597960849507288 0.8591949442308930 255 255 255
-0.7700805416193521 0.2882246981803380 0.9046074205807670 255 255 255
0.2750094928698275 0.2312142488613631 0.3615632187833953 255 255 255
0.0744897865965672 0.3234760143074809 0.5479319404064533 255 255 255
-0.8415336232255641 0.2076926515140856 0.8110393069032655 255 255 255
-0.7908842768618092 0.2655042299769534 0.8691019350651388 255 255 255
0.3251579104738052 0.1684134986482126 0.0193440706510439 255 255 255
0.1644798143371560 0.2956362205018115 0.4807454372248881 255 255 255
0.4175902179165067 0.7735288833821627 -0.1059221035752747 255 255 255
0.4913876251491542 0.6811869989689345 0.0140032309132661 255 255 255
0.2131356395155208 0.7019398251590943 0.3676991609573150 255 255 255
0.2962385620478472 0.5507465608592383 0.6473047413477389 255 255 255
0.4498642296475346 0.7831245377070637 0.0727687944410595 255 255 255
0.4355785301542312 0.7811407823820886 -0.0777009594920726 255 255 255
0.2811107592194091 0.6590991673152899 0.3482297066707645 255 255 255
0.5492241702287135 0.6060583347112569 0.1634924816324714 255 255 255
0.4188114050659673 0.7762641826566927 0.0531109764695845 255 255 255
0.4773138849133591 0.7687542988219551 0.0779795972329156 255 255 255
0.3463862911187432 0.2348091087976911 0.3368349430675313 255 255 255
0.2512182531565514 0.6568902271198507 0.2793383593483938 255 255 255
0.1416313704900602 0.3315700462110467 0.5294498329314905 255 255 255
0.2319359143925386 0.6376771956578757 0.2904034156210287 255 255 255
-0.9157373979398857 0.1685594437993987 0.8008952701445247 255 255 255
-0.9035079822411598 0.1692501555335055 0.7938035422249583 255 255 255
-0.9082788484392672 0.1707778965654791 0.7995262906266172 255 255 255
-0.8643998274493421 0.1809142948379692 0.7908959228964902 255 255 255
-0.8524520467737915 0.2323053337146277 0.8533500199732416 255 255 255
-0.8433553524446182 0.1745485169286498 0.7827300429169384 255 255 255
-0.7082086695229193 0.1461188370670419 0.6865259058721875 255 255 255
-0.8747434163705399 0.2071647799515988 0.8313576439249679 255 255 255
-0.7774026105763383 0.1877485493514754 0.7633208961930507 255 255 255
-0.8613158938639887 0.2207493068701041 0.8398082957890924 255 255 255
-0.7899461045176004 0.2382650397251420 0.8356554734516202 255 255 255
-0.7031729503895248 0.2397659465948316 0.8045991886115749 255 255 255
-0.6933963233397611 0.2574170257272774 0.8162595079558841 255 255 255
-0.7437940646993595 0.3216805334921151 0.9130385145209807 255 255 255
-0.7132422146338619 0.3242350802598502 0.8845506878488756 255 255 255
-0.6831023061124402 0.3269514429929217 0.8994358371471325 255 255 255
0.0939910807623693 0.2113188142752795 0.4068823350279596 255 255 255
0.1074815613820874 0.2567144084236332 0.4574813327749752 255 255 255
0.1279947245467911 0.5659672337328594 0.3632732300706887 255 255 255
0.1890394058859783 0.5889926218463728 0.2738525386721165 255 255 255
-0.5175860800282419 0.3896279197506844 1.3142720937288956 255 255 255
0.2715055251595437 0.5425781176446378 0.2796622902213066 255 255 255
0.1828867056647070 0.6719347607824346 0.3831095182769673 255 255 255
0.3273257942882850 0.6137754530550410 0.3322144441201402 255 255 255
0.2505990538357992 0.6708321082742401 0.3329314840987223 255 255 255
0.3056899199638039 0.6567344159860369 0.3020109008575531 255 255 255
-0.8727287458905277 0.1477337470490994 0.7583879330541863 255 255 255
-0.7594874795262871 0.1789724782237956 0.7510019468620310 255 255 255
-0.7636714365948487 0.2038491877466906 0.7836696203507456 255 255 255
-0.7868595184826681 0.2413036127989656 0.8384950021949180 255 255 255
-0.7675013318924084 0.2684028562124570 0.8588281127554174 255 255 255
0.2095054248193691 0.2528268528823503 0.4141318308645818 255 255 255
0.0711178133771273 0.3024933350951002 0.5377390158380617 255 255 255
0.3877591602830042 0.2626673302173281 0.3482961757189478 255 255 255
0.4058714732700572 0.7568404287239296 -0.1096181591330354 255 255 255
0.2560829492274195 0.6496998510632004 0.2664348984607585 255 255 255
0.2009167808269474 0.6704417384401751 0.3817169381456580 255 255 255
0.2723771576126719 0.6531540734851902 0.3554176700347699 255 255 255
0.4362032630007420 0.8146240553483004 -0.0805359915285493 255 255 255
-0.8956783653917437 0.1777630361258931 0.7846512137125510 255 255 255
-0.8918897757070431 0.1874567275147933 0.8146648602266500 255 255 255
0.0469821715911536 0.1771598875596965 0.3869324771437306 255 255 255
0.3477977879159595 0.6841509069308258 -0.0214375863893281 255 255 255
0.3174086876388444 0.5357974901226218 0.2575037679501802 255 255 255
0.2737548442664934 0.6567063382860390 0.2382655680404628 255 255 255
0.2429569358339486 0.5269717583538985 0.5543362071320522 255 255 255
0.2963473499962870 0.6469787355606336 0.2834164574009108 255 255 255
0.3084446371345209 0.6513101368714871 0.3384491740752082 255 255 255
-0.7422542493936950 0.1969980434617193 0.7697283384727633 255 255 255
-0.8248618971281072 0.2360056054142148 0.8471185639692358 255 255 255
-0.7598337597887088 0.2718008041569000 0.8604869402207953 255 255 255
0.2264685109228086 0.2861853937060985 0.4427109764769099 255 255 255
0.4677034534252336 0.2661121310058867 0.3181350564702079 255 255 255
0.1568789379966944 0.5827729182500470 0.3442168710818052 255 255 255
0.1945535522843134 0.5995476442700109 0.2854531027224994 255 255 255
0.3693972728464630 0.5630826942563303 0.7122800752025711 255 255 255
0.1756629004979107 0.1716748933618035 0.3256442600362401 255 255 255
0.4038189200699475 0.2725781128929989 0.3548912373023969 255 255 255
0.2599784547633236 0.4535797984611150 0.7954351836158648 255 255 255
0.2713532557417473 0.6655559873343471 0.3499623127135045 255 255 255
0.4359006426674696 0.7935792420943351 -0.0808225065989205 255 255 255
1.3169321557804590 0.1815510377670913 0.3788520261527142 255 255 255
0.8245043176691228 0.5867168405342744 0.2134471414253926 255 255 255
1.2822629547365598 0.3140306418358210 0.4622371685978777 255 255 255
0.3386882333017471 0.1368144103052629 0.2183281991860504 255 255 255
0.3835562426908359 0.7383017053256520 0.0100563688551318 255 255 255
-0.9284791378904014 0.1398316872394320 0.7523447240008920 255 255 255
-0.8718001891863394 0.1159350576030493 0.7171739103406747 255 255 255
0.1668513495226345 0.4893547721466156 -0.2188777268689419 255 255 255
-0.8848706419120447 0.1281645774081568 0.7430995971715859 255 255 255
-0.9005632773939358 0.1412913516677166 0.7615034756902523 255 255 255
-0.9009174204808604 0.1460944671019606 0.7667919013994811 255 255 255
-0.8941456851559966 0.1462452985945544 0.7620780325434371 255 255 255
-0.8820703822467020 0.1615234387621767 0.7775668068231898 255 255 255
-0.8784952396211890 0.1667250009178499 0.7822469270868055 255 255 255
-0.7845917707584658 0.1517181827017353 0.7254411359138970 255 255 255
-0.6129380293184765 0.4052584687408931 0.9556057757318941 255 255 255
-0.7981020592489187 0.1657412400739702 0.7354113693855737 255 255 255
-0.8903375030124124 0.1882346357213274 0.8146028661721378 255 255 255
-0.8755777095207313 0.2007693164206059 0.8199209835858778 255 255 255
-0.7908214376244285 0.2032075469068531 0.7789282424751711 255 255 255
-0.8554233114309246 0.2324753852754622 0.8485763471520364 255 255 255
-0.8185707900985344 0.2399848559328037 0.8449082913383679 255 255 255
-0.8380569903929176 0.2451137747936727 0.8653515271024603 255 255 255
-0.6777830483114728 0.2093221735685780 0.7450938901920212 255 255 255
0.2807447301817456 0.5472370567524534 0.2852107643723869 255 255 255
0.1305379419979253 0.6569156101962399 0.3856982109403653 255 255 255
0.1473398405060953 0.3774615399444363 -0.1815062576660627 255 255 255
-0.8999152907542474 0.1418003532958205 0.7615535444936272 255 255 255
0.1850510524597320 0.3555580906018649 -0.1754863536430433 255 255 255
-0.9101634908845837 0.1664963845983847 0.7875120865394623 255 255 255
-0.7609218346343898 0.2390800509811601 0.7925230011845272 255 255 255
-0.7683278730560712 0.2611312808692592 0.8349519650107560 255 255 255
0.0294964416112895 0.1830907466588698 0.4109382623656250 255 255 255
0.2111144872404029 0.2986242621849904 0.4643242668426257 255 255 255
0.5533111073357020 0.3611016678330401 0.3926142501499754 255 255 255
0.4207149103480248 0.7675845925922538 -0.0960143914562970 255 255 255
-0.9089030657768462 0.1373323105573117 0.7608144808838886 255 255 255
-0.8693447767778437 0.1759937233161240 0.7619908741077301 255 255 255
-0.8754908156769838 0.1991446710550158 0.7777529282799240 255 255 255
-0.8492397474257958 0.1981834200731705 0.7969803209058957 255 255 255
-0.7244245041672102 0.2489546472985040 0.8231067765924536 255 255 255
-0.7734483397928935 0.2845568482921452 0.8824591323095667 255 255 255
-0.7923323633506598 0.2975579334777123 0.9054147587753079 255 255 255
-0.7429084272019457 0.3224367034154216 0.9116829070822252 255 255 255
0.2076114271496898 0.6670458082393012 0.3641998667231547 255 255 255
0.4206669013385778 0.7676020799867374 -0.0993474093010551 255 255 255
-0.8514523945362462 0.1352043388231361 0.7295577065217898 255 255 255
-0.8993810415452730 0.1418803283935612 0.7623756679277687 255 255 255
0.1491224093051695 0.3156164110910264 -0.1376235005143349 255 255 255
0.1823684238913579 0.5142457842502877 -0.2152822409988716 255 255 255
0.2161572481803944 0.2941226072177514 -0.1603693306248066 255 255 255
-0.7602933734102875 0.1778998723935219 0.7507364698825620 255 255 255
0.1971233692577528 0.3345764411288030 0.5130739978807100 255 255 255
0.1797483395772863 0.3532618562105636 0.5453436986539817 255 255 255
0.1703547010086801 0.5989642295342037 0.2644741088002647 255 255 255
0.3071514516290890 0.6648457992977761 0.3022168721028038 255 255 255
0.3040328416291942 0.6564863853866996 0.3316803849647414 255 255 255
0.1573635153111121 0.5200378208743768 -0.2044571251792417 255 255 255
0.2991700048486017 0.2585483932486099 0.3858260053790943 255 255 255
0.3766309940401911 0.7280041699995374 0.0107891720079323 255 255 255
0.3408402466813953 0.5364411343839848 0.7232763390141201 255 255 255
0.1931134655369444 0.3173169660461443 -0.1511411450527411 255 255 255
0.3518681971112727 0.2663203294561498 0.3821307003552192 255 255 255
0.4050751366457988 0.2705960761854129 0.3563482406071614 255 255 255
0.4063394983389088 0.2831361700710744 0.3700785740733110 255 255 255
0.2093254551395322 0.5901442373536888 0.2550572606288004 255 255 255
0.3837810751817113 0.0878936229594208 0.1410591892298022 255 255 255
-0.8776845943935889 0.0736749016548490 0.6811342124104733 255 255 255
-0.9445918024024200 0.0912578753642614 0.7326280734919247 255 255 255
-0.9611542100053423 0.1079436117894867 0.7460008856526734 255 255 255
-0.9476301378743810 0.1182840130888481 0.7471803372686244 255 255 255
-0.9059183565373249 0.1087998328251815 0.7240438098895904 255 255 255
-0.7722553578286300 0.0731276714732336 0.6266033435374667 255 255 255
-0.9462599786319722 0.1243325949579231 0.7644599317106826 255 255 255
-0.8641663719915949 0.1208611084057409 0.7198035496498143 255 255 255
-0.4790542217590534 0.0302221402211043 0.4532072789556096 255 255 255
-0.8725661207134496 0.1429273064648422 0.7520789332926854 255 255 255
-0.8651942319284056 0.1507240436211532 0.7569003887156045 255 255 255
-0.9036912742562004 0.1685958922701545 0.7975667158120059 255 255 255
-0.9034410181037180 0.1723110583205720 0.8022861042263463 255 255 255
0.2188499879281364 0.2931673727569706 -0.1730619860849631 255 255 255
-1.8317328997943783 -0.9002411091952984 2.3851127860201196 255 255 255
-0.8416969259138867 0.2386486457172481 0.7803496718810834 255 255 255
-0.7248130526556245 0.1859994092628732 0.7474676319403928 255 255 255
-0.8381600547734553 0.2410097071758734 0.8422195485289361 255 255 255
-0.7689558983644007 0.2337213925368316 0.8170336291979545 255 255 255
-0.7101822245638090 0.2335756545313643 0.7862890587735905 255 255 255
-0.6207375283821612 0.2434519288155101 0.7634396000753938 255 255 255
-0.6679208073907841 0.3137122135004731 0.8727436179919081 255 255 255
0.3618832230303948 0.6514571161396443 -0.0135162581040302 255 255 255
0.1396938745306144 0.6543883967109725 0.3054031647515991 255 255 255
-0.9473521928423061 0.1252386848355833 0.7549416875074368 255 255 255
-0.5072016199440907 0.0621815727029849 0.5049564817899390 255 255 255
0.1425379390946617 0.3741873124146524 -0.1540167289739244 255 255 255
-0.8827168140450086 0.1934460966697440 0.8243019584191114 255 255 255
0.1863024040368515 0.6451966145330346 0.3807813890729790 255 255 255
0.3788038879240521 0.7248670208372783 0.0125163027553086 255 255 255
0.3101397872260563 0.6617457772061286 0.3055873972486864 255 255 255
0.2797360167847245 0.6773434233605116 0.3581758535670332 255 255 255
-0.9251961812291258 0.1108146595670811 0.7359103070116790 255 255 255
-0.8757529546151401 0.2016655027411070 0.8286432732336282 255 255 255
0.3253961389997404 0.0407553243073485 -0.0885976967999523 255 255 255
-0.7030894298963410 0.1990792207449488 0.8548620913453622 255 255 255
-0.7439145450309077 0.2551354670960428 0.8541175737274429 255 255 255
0.0937335833581683 0.2155394908243631 0.4110753822563220 255 255 255
0.0948977056124676 0.3114476646457547 0.5190510333120812 255 255 255
0.3927112083586453 0.2845296116389378 0.3753759384053890 255 255 255
0.2249134175701926 0.6883194082197832 0.3386777097833971 255 255 255
0.2027837213226955 0.3181282179712606 -0.2089788974370834 255 255 255
0.2170335372990326 0.3234756905354619 -0.1590595838895039 255 255 255
-0.8690999686534759 0.1773254673801163 0.7944193860504045 255 255 255
-0.8040401644419961 0.1886797414129506 0.7803023646060376 255 255 255
0.2322726561085204 0.2718502963346623 0.4222078404356751 255 255 255
0.1853552445994726 0.5795436577721844 0.2787250265021903 255 255 255
0.2598509550987700 0.5262952091991053 0.2959674780755392 255 255 255
0.1486809022526359 0.5809287860946952 0.3432061878089385 255 255 255
0.2681463197821896 0.5449822626325939 0.3695413949728968 255 255 255
0.2051608419578059 0.6326314538913067 0.3835915456178824 255 255 255
0.3335826566863489 0.6091300209835993 0.3451028706248765 255 255 255
0.5368381750486684 0.6196663431974656 0.1439812458817666 255 255 255
0.1290459634023174 0.3578439398177451 -0.1713744612952621 255 255 255
0.1677203711311528 0.3656922153568709 -0.1803976041591957 255 255 255
0.2757149776246086 0.5665475887997502 -0.1105860164304704 255 255 255
-0.9302942047827308 0.0767433493984846 0.6917639066049257 255 255 255
-0.9983242744542613 0.0703966153608193 0.7697242882923647 255 255 255
-0.3787947322749865 -0.0593731444809791 0.3065813996511046 255 255 255
-0.9448598737195524 0.0979775314958129 0.7237440762204850 255 255 255
-0.9618880777240433 0.1043427128475161 0.7411171102941041 255 255 255
-0.9425543520294074 0.0996442592268812 0.7330191006203598 255 255 255
0.1780286673324263 0.3269773130299487 -0.2450694482886780 255 255 255
-0.8906916236478764 0.1219969232492142 0.7332700880454075 255 255 255
-0.8899760256302961 0.1273936620302032 0.7400183632365060 255 255 255
-0.7703017125652134 0.1016273880560665 0.6582300594221824 255 255 255
-0.3877320030589377 0.0129874877329748 0.3981499426965449 255 255 255
-0.8627260226242388 0.2128195795714856 0.7012825351326128 255 255 255
-0.9090557776279713 0.1597793809831458 0.7874479033587036 255 255 255
-0.8515673583255887 0.1664142389049212 0.7739324521413509 255 255 255
-0.8709644133075667 0.1728199056578941 0.7879271704122175 255 255 255
-0.8246523108290349 0.1657556995731699 0.7739598300234487 255 255 255
-0.8801649114593375 0.2079443834839667 0.8288970740312722 255 255 255
-0.8560940943584709 0.2211871863748378 0.8444903483104049 255 255 255
-0.8369106059507381 0.2375619267618312 0.8502173736467959 255 255 255
-0.8281714973380137 0.2607848333093585 0.8818838626311649 255 255 255
0.0296345205563240 0.1216428965331602 0.3250027448021680 255 255 255
0.3056640415954845 0.2528609163139137 0.4054329267614776 255 255 255
0.3446212138744866 0.2946264178206697 0.4204132469916644 255 255 255
0.1816979253687399 0.5566174050604310 0.2743190642805887 255 255 255
0.1189944579549562 0.4034873331319029 0.6773248345405305 255 255 255
0.1414422387638936 0.6588859524211017 0.3040488934284014 255 255 255
0.2941167536958815 0.5982265580951882 0.2570430396146826 255 255 255
0.2242010033474742 0.6188026355680023 0.3825219120918177 255 255 255
0.2588142120342667 0.6568351886788690 0.3301485077962951 255 255 255
0.2253111909551073 0.6896075133469637 0.3374999256645168 255 255 255
-0.9107761380121986 0.0679532759916751 0.6810641267572195 255 255 255
-0.9763243085138615 0.0852942304913757 0.7269371740791253 255 255 255
-0.8352990343149234 0.1210433305867844 0.6968042270856398 255 255 255
-0.8518508420460984 0.1407546321306445 0.7382455783326201 255 255 255
-0.7825168811329739 0.2465571060224931 0.8312543133036314 255 255 255
0.0326559579557213 0.1851390121590750 0.3972529782002718 255 255 255
0.3103212561695425 0.5729367027450323 -0.1226348309063878 255 255 255
