ply
format ascii 1.0
element vertex 690
property double x
property double y
property double z
property uchar red
property uchar green
property uchar blue
end_header
1.0587305128461724 0.7934982128668802 1.5692057140460722 255 255 255
-0.5105243400058468 0.4720255053150497 1.3862685340910765 255 255 255
-0.0519304622557627 0.5441379172429632 1.3919876540805247 255 255 255
0.4804916541282873 0.6648374527439478 1.4512416058845272 255 255 255
-0.5451985042292407 0.4743221387404386 1.3735309259770574 255 255 255
1.0608673148588554 0.7577517454453819 1.4475978104329736 255 255 255
1.0852522740488437 0.7691374881980422 1.4577326721633970 255 255 255
0.6793243681046242 0.7513308451655059 1.4624347658283128 255 255 255
0.6947657699450547 0.7529547218116974 1.4566778150733555 255 255 255
0.6971696529662423 0.7502248451560185 1.4373192443021048 255 255 255
1.0514905234123995 0.7911526802218307 1.4240090304787176 255 255 255
0.5835004605220286 0.7088828213049005 1.3889708977190636 255 255 255
0.3132671955630337 0.6454760925865262 1.3182886144831496 255 255 255
0.2614345374981113 0.6104124618770925 1.2717314522749175 255 255 255
0.7193989513653545 0.7718603610828086 1.4296539539179647 255 255 255
0.1964276071419848 0.6071245241245660 1.2650361016916423 255 255 255
0.4085997016078522 0.7171868972021591 1.3814086556152931 255 255 255
0.3940940228188965 0.7247318395673492 1.3920057360798945 255 255 255
0.3138055509755771 -0.0405185760176481 1.8589493898781537 255 255 255
0.2315519768416261 -0.0473668198645478 1.7178874064601137 255 255 255
0.7274064391691315 0.2871084129602388 1.8315105312317583 255 255 255
-0.5397382317170876 0.0727988313398542 1.8847548546752964 255 255 255
1.0944153202304430 0.4831202365868004 1.8092803724807291 255 255 255
1.0952843019009186 0.5186268808196229 1.7737681795414550 255 255 255
1.1374048693573606 0.5194581335450139 1.6302891596079561 255 255 255
1.1125060187241265 0.7842259108961749 1.5587815959592799 255 255 255
-0.5116148271930117 0.4842365504413593 1.3904019991593426 255 255 255
0.3209912999959457 0.0119909845545592 1.7179988921888061 255 255 255
0.3974700007746411 0.0930538062720503 1.7742054002980081 255 255 255
0.1021209170765491 0.0244733523260547 1.6558860027330091 255 255 255
0.3050066304051522 0.1420134791245893 1.6802390643860869 255 255 255
-0.0282803516707155 0.0609519486139806 1.6689359675524633 255 255 255
-0.2136667063404755 0.0298964616536664 1.7076164045737334 255 255 255
0.0647971024202274 0.1024811841365256 1.6691732404720625 255 255 255
-0.6669995354990329 -0.0585389273970730 1.8312848179024810 255 255 255
0.7385385301907417 0.3544209528890860 1.8080766222821589 255 255 255
-0.2601496913997288 0.0593511326307927 1.5550136702032962 255 255 255
1.1002938506285651 0.5091785840022547 1.6769699312270385 255 255 255
0.1376874299369151 0.2961159062084786 1.6536602564799168 255 255 255
1.1112228997277065 0.5533216311443061 1.6375546481973493 255 255 255
0.0694958727538162 0.3824701735803187 1.6029171021567903 255 255 255
0.1378768048617796 0.4388606104944495 1.5834350988550725 255 255 255
0.9204870379026797 0.6516008564219238 1.5690711801215143 255 255 255
1.0185898007373488 0.7528908505804970 1.6459670715971795 255 255 255
-0.6858272124349831 0.3475868642605739 1.4040775055436789 255 255 255
0.1301138957511725 0.5277930435980629 1.4771917052736134 255 255 255
0.5327175898949407 0.6243311247075837 1.5029805056172054 255 255 255
0.3728387069941003 0.6180355249247409 1.4687712110271205 255 255 255
0.3897452520643385 0.6215539850573535 1.4676430491077008 255 255 255
0.1581695729238542 0.6119535259942774 1.3476293056801274 255 255 255
0.0732426391315404 0.6270125500248864 1.3913624414190988 255 255 255
0.6975327112917529 0.7552394566428505 1.4511962184581033 255 255 255
-0.0543302792360696 0.5618846521957224 1.2896806333825142 255 255 255
-0.0404790308818376 0.5706172826127538 1.2850996687698624 255 255 255
0.4347145746747656 0.7148111301666713 1.4158123167561332 255 255 255
0.1791235613606287 0.5990131445854404 1.2790875674160396 255 255 255
0.5625614670020168 0.7079683810485978 1.3701547749637717 255 255 255
0.5840063345889206 0.7169149510204496 1.3817140068844651 255 255 255
0.6608475389983375 0.7453794684093081 1.4115296241665256 255 255 255
1.0105607193044552 0.7961947345619980 1.4146587338905723 255 255 255
0.0439337876680534 -0.4129843057155316 1.6863411566801021 255 255 255
-0.3711454835999244 0.0926255289329407 1.7008699077663429 255 255 255
1.0976438748571180 0.4857220857655287 1.6295460691367682 255 255 255
1.1328738099793101 0.5683137866479220 1.6383272763156729 255 255 255
1.1153216975646227 0.5983410942810956 1.6525006646214213 255 255 255
1.1264386341677211 0.6603562879527896 1.6145006057054014 255 255 255
0.1879101117582638 0.4902309833874577 1.5523923741610086 255 255 255
1.0755951018994079 0.7503437472068122 1.6074374988145153 255 255 255
0.2490993854062276 0.5749364641052457 1.5118889255044323 255 255 255
0.5013492842670969 0.6399289698152628 1.4980789524142626 255 255 255
1.0517284428973994 0.7857828010337619 1.5462120078172426 255 255 255
1.1111970876316450 0.5131603306622756 1.6615337415800666 255 255 255
1.0834497613403729 0.6403235374457243 1.6205336922000178 255 255 255
0.9167216020504226 0.6140607402646732 1.4967701717434894 255 255 255
0.3075609641261777 0.6297302020625617 1.4671558442581389 255 255 255
-0.2565216026996344 0.4824077569590541 1.3456901735195381 255 255 255
0.1574095098229152 0.5980147575429724 1.3969593070738182 255 255 255
0.0995720934880562 0.6076429500693437 1.4143001367302759 255 255 255
0.0090012701650665 -0.4228451659202923 1.6783854198868087 255 255 255
-0.0492856118241833 -0.4393755956419501 1.7336768933822104 255 255 255
0.0813663683859745 0.0780258485900005 1.6772040559655226 255 255 255
0.1144819966263686 0.3402455368444475 1.6216212832027637 255 255 255
1.0729807591354925 0.6109021235263041 1.6754941819708771 255 255 255
1.0031201145728008 0.6490763313723744 1.6596365997626314 255 255 255
0.5714273858816435 0.5982633107930191 1.5140760067720120 255 255 255
0.4953039747244881 0.6361313830488692 1.4953481141501423 255 255 255
0.3831924987224905 0.6456631022701540 1.4411035584894982 255 255 255
-0.2291262592076624 -0.0263218354056898 1.8106653428371224 255 255 255
0.9653913715749343 0.4705663011194076 1.7047012845198926 255 255 255
0.4015760493011697 0.5812004795616612 1.4488858752734770 255 255 255
-0.5892311604115283 -0.0488810339347798 1.5988450407583541 255 255 255
0.9500458947266885 0.4094714710455394 1.8223786004390519 255 255 255
0.9643234372358085 0.6948063046704751 1.7302097809780057 255 255 255
-0.3647884798588568 0.2947359500711408 1.5233339122538645 255 255 255
0.2519468852657900 -0.0294373351083963 1.8188983288829754 255 255 255
0.2679662015929755 0.3576668484265070 1.6725716434587592 255 255 255
0.7774879846080286 0.2831509740075970 1.8075872598240776 255 255 255
-0.0145496648383646 -0.4239535228988223 1.6765052616196336 255 255 255
-0.1064895899726999 -0.2678592857047457 1.6724214373284312 255 255 255
0.1104895344232840 -0.0904410836563326 2.2992570317219929 255 255 255
0.2324523838234667 -0.0708871236825450 1.7212340820654308 255 255 255
0.0608354448474229 -0.0197516885874811 2.1584626161984986 255 255 255
1.4085560947298430 0.3535429563485961 1.7372343131354286 255 255 255
-0.0173552816897427 -0.0388818474072821 1.7801792851646212 255 255 255
0.3772416104267349 0.0841217043988541 1.7663206121541848 255 255 255
0.5147395164789493 0.1305043149179679 1.7934917179315235 255 255 255
0.0585041112247198 -0.0248201011169829 1.6250776201034700 255 255 255
1.3807339571334787 0.4274650281028864 1.7334341528087054 255 255 255
-0.3010036047213270 0.0033517789399357 1.8332753649779219 255 255 255
1.3569748982329699 0.4854131130063024 1.7236430863622871 255 255 255
0.0752632363249703 0.1244021159908764 1.6402361174358457 255 255 255
1.3550320526565613 0.5161500069312126 1.7343290992533973 255 255 255
1.3480777124820766 0.5315189335629338 1.7323675936101464 255 255 255
0.1809978475924081 0.1867334779504558 1.6628083747037423 255 255 255
-0.2969131918858812 0.0541646457754263 1.5411430189879813 255 255 255
-0.5414941180392319 0.0502390964517598 1.7960893198832348 255 255 255
1.0647602341614624 0.5185111085742697 1.7012358799770082 255 255 255
1.1655789542370902 0.5336282135873731 1.6064008422542126 255 255 255
1.0799723750842101 0.5225896067863747 1.6471438323679619 255 255 255
0.3629560609882038 0.4971830524403078 1.5801953554761168 255 255 255
0.9361248728233470 0.6956032881549037 1.6078737666207497 255 255 255
1.1945069782405318 0.7249179780162049 1.5066120584429368 255 255 255
0.1890420195558777 0.5526965501270904 1.4864036057988654 255 255 255
0.0682461757635959 0.5165622766703721 1.4696989958065341 255 255 255
1.0981753219599848 0.8063610003806092 1.4163539228233115 255 255 255
1.0581826710383160 0.7581786805941824 1.2984415358052988 255 255 255
0.5734152270739752 0.7114617083343786 1.3919984238126459 255 255 255
-0.0785197875499832 0.5764752270888813 1.3641627775640373 255 255 255
0.0838677100868978 0.6131176685027468 1.3638895537028426 255 255 255
-0.2190398815641319 0.5118418200752939 1.3072197219189623 255 255 255
0.5314258827016974 0.7362414718197738 1.3605167624087957 255 255 255
-0.0394040274952530 0.5622198266286254 1.2979773209202925 255 255 255
0.0298078542737499 0.5903210842388296 1.3111720853636024 255 255 255
0.7621781917364303 0.7725824865387447 1.2997939086865928 255 255 255
0.4249172155450343 0.7407734475386665 1.3640457811069924 255 255 255
0.4173068051503253 0.7394043237874943 1.3577896884005769 255 255 255
-0.0854251516028011 0.5154455354795184 1.1981522875417250 255 255 255
0.1706163137738628 -0.0817096137711671 2.1335682093976231 255 255 255
0.2201964711006170 -0.0597334765189605 2.1835353853661443 255 255 255
0.1009252530466049 -0.0019641774590080 1.6677399433954356 255 255 255
1.3856378807508714 0.3994474328109556 1.7256758366009886 255 255 255
-0.2201832074664317 0.0017944194070686 1.7966895364201538 255 255 255
0.2563402978556983 0.2378742698060425 1.6807842171259768 255 255 255
1.0757133484345363 0.5465846441132790 1.6727372504025420 255 255 255
1.0304373305827224 0.5427826266875044 1.6689027931770108 255 255 255
0.2113711727758548 0.4200667305714375 1.6641917732648477 255 255 255
1.0698875307551639 0.7923890557576030 1.6086839144471723 255 255 255
1.0536504264713762 0.7973982107755617 1.5788217055124392 255 255 255
-0.6755972334163221 0.3213615713406668 1.4440271465177654 255 255 255
1.0934046719007120 0.7972585885447039 1.4371888198156446 255 255 255
0.3207986056730031 0.6364038923333055 1.4580723553355452 255 255 255
-0.1106781507658436 0.5410670536819366 1.4219735308244736 255 255 255
0.0881416284402541 0.5939937480735944 1.4031705539239647 255 255 255
-0.0817093461606114 0.5552821969496371 1.3855529423545949 255 255 255
1.0073738491434021 0.7928513967611228 1.3327406351775313 255 255 255
-0.0118292715193617 0.5963043503017964 1.3926650461620231 255 255 255
0.1829452485848660 0.5917150499490718 1.3073673978676226 255 255 255
0.7305297742482308 0.7849275727768878 1.3842011092922224 255 255 255
0.6563311766351689 0.7770316420960519 1.3954648164457186 255 255 255
0.9401868586104642 0.8510709434054742 1.3999972443339725 255 255 255
0.7571027926992659 0.7724523615255610 1.3163046662412379 255 255 255
0.9594398579393048 0.8023267586021130 1.2823104727103025 255 255 255
0.7616614023611221 0.7728264953362336 1.3000339414480928 255 255 255
0.0727132108764245 0.5831976656025590 1.2546376994322448 255 255 255
0.2585596273619096 0.6299115707725922 1.2530827524462678 255 255 255
0.2679620466254067 0.6266154783654545 1.2442705241977212 255 255 255
0.5043962863178053 0.7594052750515576 1.3450281097681343 255 255 255
0.4898299913894204 0.7473514544832347 1.3228574869554297 255 255 255
0.4611870070865653 0.7229236075146925 1.2952527614581184 255 255 255
-0.1060411720046268 -0.2679071291520572 1.6722256093425791 255 255 255
0.2941264580744212 -0.0425886048338339 1.9010862753787414 255 255 255
0.3195542295148559 -0.0351048369313425 1.7504705650513559 255 255 255
0.3402990583096057 0.0740044407632751 1.7286284997744978 255 255 255
-0.2408121536430192 0.0023271743822913 1.7554187403880952 255 255 255
0.0636120342507809 0.1620444612940743 1.6524248823099956 255 255 255
-0.5943674153808671 0.0573105666484310 1.4421936046360138 255 255 255
0.9871007104862222 0.6997354448895634 1.6729705312141379 255 255 255
-0.0431150609401803 0.5504524405723064 1.4168671117998199 255 255 255
0.9373993383636440 0.8099891037237266 1.2837800936956594 255 255 255
0.0954332374120564 0.5932903326663141 1.2487984994969030 255 255 255
0.2348212149045068 -0.0667744496590901 1.7334520220132195 255 255 255
0.7581756590605109 0.1883225741206638 1.8886703259459914 255 255 255
-0.0058814898904629 -0.0407242333564422 1.7791167267809875 255 255 255
0.3733274028380669 0.0782853586361598 1.7706642883010906 255 255 255
0.4572572063398692 0.1916507276925830 1.7167129041410338 255 255 255
0.6364759770859671 0.2586241761651237 1.7686855790533960 255 255 255
0.6906182907404733 0.3255152953206015 1.7994136724658416 255 255 255
0.8093882808152260 0.3720814839988377 1.8019416368091787 255 255 255
-0.6401540534685095 0.0405192029309138 1.8499582450348213 255 255 255
1.3672147794006932 0.5816385912756810 1.7123410881617782 255 255 255
1.1611381138879733 0.5278267182194987 1.6138608639151215 255 255 255
1.0396828647840803 0.5335078479310307 1.6599404633704664 255 255 255
-0.5851140821194161 0.0257953275460738 1.4424922879327333 255 255 255
0.1594919685593221 0.4473765733727415 1.5971974977936458 255 255 255
0.9613051133024892 0.7116070033535458 1.5460045121328263 255 255 255
0.9836579043732407 0.7753779843761519 1.5165255703545490 255 255 255
1.0912218956084243 0.7788455005181247 1.4694906229344120 255 255 255
0.0742779535609832 0.5228713723732279 1.4726685867979903 255 255 255
0.7008557869245258 0.7102902656205692 1.4980868889407968 255 255 255
1.0587230383139705 0.7873131999836283 1.4142740337863564 255 255 255
0.6654574527053130 0.7348755952285169 1.4246896440573682 255 255 255
0.1057817681983963 0.6066593054760749 1.4119482496434890 255 255 255
0.7204085908316017 0.7705924786854248 1.4314976103289576 255 255 255
0.6420226966409586 0.7383210915703506 1.4008812882913104 255 255 255
-0.0200941825205522 0.5700046068713966 1.3835428866039130 255 255 255
0.7103786066901048 0.7671432103336979 1.3993966322482052 255 255 255
0.8759604460981270 0.8286520878258217 1.4432269768424026 255 255 255
-0.1946085887313858 0.4980355087067796 1.3181439986862147 255 255 255
0.1828023846455340 0.5947233847214157 1.3110332389810795 255 255 255
0.2201287303290995 0.5883970657373934 1.2841117036965271 255 255 255
0.1182801923541296 0.6270833795567825 1.3795918297265881 255 255 255
0.6368433763476010 0.7588600067083038 1.3754321858705616 255 255 255
0.4115771375117883 0.7236399859582491 1.3912322454749693 255 255 255
0.6423505875982876 0.7865778856489407 1.3894844607026808 255 255 255
0.4745695252082145 0.7378678252754503 1.3745785719903862 255 255 255
-0.0398404629160178 0.5633882713519132 1.2938915854064676 255 255 255
0.9417951822536339 0.8513315832181423 1.3772438798269242 255 255 255
0.7564391458966351 0.7725706046060496 1.3149368742690326 255 255 255
0.1960775265082238 0.6088520797382975 1.2662476206753057 255 255 255
0.9782817999827700 0.8076812027903568 1.2871523779119323 255 255 255
0.9613780901608933 0.8048014099390910 1.2837986501404623 255 255 255
0.3949781296251256 0.7391716301459081 1.3763780810024375 255 255 255
0.7604715804563644 0.7721836161503117 1.2988960000980092 255 255 255
0.0603124790832620 -0.3959295138446587 1.6879372270078101 255 255 255
0.2747957872931908 -0.0609876897784680 1.7364347254426047 255 255 255
0.3248218438105286 0.0019327864275147 1.7412995022022426 255 255 255
0.1344254858324292 -0.0452771965151069 1.7393234037753045 255 255 255
1.3808104018603764 0.4236088695542293 1.7294770193821343 255 255 255
1.1338384651575579 0.5505546493169170 1.6663490027479608 255 255 255
1.0392782875006228 0.6501670153622272 1.6424789847352126 255 255 255
0.6980874413136104 0.7088207304212557 1.4952897840634098 255 255 255
1.0963760372044178 0.7932537994126494 1.4403377161971722 255 255 255
0.3534601966177376 0.6256610455589532 1.4583919901257230 255 255 255
1.0503523903665171 0.7880521980946664 1.4269261539093483 255 255 255
0.1734210874727335 0.5817902774524385 1.4278980935577485 255 255 255
-0.0346183531130150 0.5396089390134412 1.4198175391391603 255 255 255
0.7035181949781760 0.7680333772088733 1.4010747096250977 255 255 255
0.9923445675563338 0.7973406119510393 1.3329806663730714 255 255 255
0.9351255874979074 0.8320491348934937 1.4019504282141941 255 255 255
0.1807100469076995 0.5950488440715231 1.3045813502958357 255 255 255
1.0062366695184775 0.8067367769028522 1.3213356879953331 255 255 255
0.7047984504126450 0.7727980201884428 1.3771306070004812 255 255 255
0.6717886005497555 0.7762451999164404 1.3936165030043739 255 255 255
0.6460395830338772 0.7664288001099573 1.3849973075219162 255 255 255
0.2608517772819276 0.6079422489346811 1.2736134043314977 255 255 255
1.1173899486363326 0.5191575859124588 1.7467595799513409 255 255 255
1.0992637210304008 0.7356259336865929 1.6049309971523371 255 255 255
0.3711080652388525 0.6144454992435562 1.4664629388521062 255 255 255
0.6762095664966755 0.7164161528686792 1.4872017946859950 255 255 255
0.9178827660316478 0.8227964290224923 1.4048410468083115 255 255 255
-0.5467137886271360 0.0730465732009070 1.8849525806540828 255 255 255
0.9799615259866652 0.4690729612440939 1.7063311547321705 255 255 255
1.1478118477500714 0.6172679165661259 1.6216718077243071 255 255 255
1.0841664584358928 0.7268123468277473 1.6601360402368097 255 255 255
0.9873915660480316 0.7512379371626012 1.5151721519500074 255 255 255
0.9770924887178960 0.7761207747499708 1.5102313918754695 255 255 255
-0.0485616849843730 0.5437297963233101 1.3990551693591371 255 255 255
0.9310020636933882 0.3779552550042504 1.8399286371524306 255 255 255
0.4874562247786930 0.6606667895650582 1.5096327217083210 255 255 255
1.1263111912613128 0.5176256350553079 1.7900874600083925 255 255 255
0.1807225484965534 -0.0336029775030937 1.6583831304973282 255 255 255
0.9676746007901481 0.6654888245835848 1.6696111802161804 255 255 255
-0.0604561708342937 -0.3070614983060690 1.9471636867748012 255 255 255
0.2079420200415226 -0.0833543625327795 1.7674255560626095 255 255 255
0.2325488293626976 -0.0481345010767416 1.7206910362632950 255 255 255
0.3082870815555854 -0.0018895763674545 1.7468139513449454 255 255 255
0.3102514496806659 0.0088326704504611 1.6924923819491711 255 255 255
0.0555821167660754 -0.0664148881247037 1.7098532987857711 255 255 255
3.3571602820295254 1.2199021915969261 4.2036993276059569 255 255 255
0.3494501375852994 0.0705696851831564 1.7653145791631000 255 255 255
1.3348175186825890 0.4091267476081626 1.6392279446163820 255 255 255
0.2917964634341064 0.1291237365069757 1.6781142456928735 255 255 255
-0.0547911746565307 0.0354169094642484 1.7255234313183534 255 255 255
0.2883658723163416 0.1427308551502318 1.6795765841090553 255 255 255
0.0831342640605794 0.0765968180879941 1.6458068539561346 255 255 255
0.7966322776264676 0.3677208721943526 1.7778005951803557 255 255 255
0.6464689333077851 0.3208389026883105 1.7249685461041115 255 255 255
1.3390552135100187 0.5630790614748014 1.7299335186114622 255 255 255
1.0771047621792746 0.5014522811308865 1.7569047582946151 255 255 255
-0.3272749536135271 0.0989717794438271 1.7549923638773479 255 255 255
-0.4380602570321936 -0.0009206010251188 1.4878164941930860 255 255 255
-0.4178225516392104 0.0099336839583444 1.4931552220295785 255 255 255
1.1015799810389026 0.5813196688460103 1.6284492937034543 255 255 255
0.0416891262438912 0.2173251319045448 1.6344699980463950 255 255 255
1.1446393467101172 0.6108380628342425 1.6055098464089639 255 255 255
0.0283929808394885 0.2734503374120676 1.6258418567181812 255 255 255
0.0146594700337950 0.2947821835379405 1.6340633049977153 255 255 255
0.9396746103316040 0.6743707094626679 1.5418407483401921 255 255 255
1.1852401363286704 0.8008484879634363 1.4268606446476704 255 255 255
1.0647783528555674 0.7627483833600248 1.3476952773066309 255 255 255
0.5915152631494749 0.7214727291224543 1.3941637153271458 255 255 255
-0.1675649026184714 0.5103378037890016 1.4062506216455839 255 255 255
0.1633267783568333 0.6040922313914883 1.3536428360463391 255 255 255
0.5340393287481726 0.7229769206568815 1.3228947511242088 255 255 255
-0.2273457198910527 0.4888206161849450 1.3606602351561081 255 255 255
-0.0531393758192961 0.5640948507752193 1.3700869158456090 255 255 255
0.4869881112376393 0.7569496846640624 1.3654809977667193 255 255 255
0.8970108810494293 0.8159987189996964 1.2280719275533991 255 255 255
-0.2276303939899574 0.5081511127509026 1.3355597849294032 255 255 255
0.4263107947130149 0.7191854745063555 1.2738139573524423 255 255 255
-0.2315822301385850 0.5069938313842073 1.2868988582197005 255 255 255
0.4514538928649698 0.7286088357021407 1.2583291272503114 255 255 255
-0.2244160279808128 0.5127134913824687 1.2899389644689556 255 255 255
0.3018333669269477 -0.0088205999614193 1.7251065802479886 255 255 255
-0.1471913015585130 -0.1475566312673542 1.6751059548986900 255 255 255
1.4284764312820089 0.3810315299222242 1.7083462808137782 255 255 255
0.3194602729948524 0.0254219293159357 1.6914686201497604 255 255 255
-0.0083538257168804 -0.0425299210112072 1.7780350533396949 255 255 255
0.0543134485308490 -0.0348090981088145 1.6231625509471712 255 255 255
0.0659886197825110 -0.0274867386336455 1.6248644370185499 255 255 255
0.0787012117476296 0.0367879290848272 1.6362555498768572 255 255 255
0.7435063487324325 0.3701944689402735 1.8455767705778054 255 255 255
0.2662546400384506 0.1973514140265622 1.6718236341458272 255 255 255
1.1068527725405717 0.5042173106462915 1.7688024667808762 255 255 255
-0.3143478199806809 0.0850844803635271 1.8226181128555590 255 255 255
-0.3397196231547905 0.0986569695446786 1.8423472807068482 255 255 255
1.1093071207819918 0.5310564391558524 1.6206896326297411 255 255 255
1.3283912766225843 0.6328629521257962 1.7178696171673042 255 255 255
-0.4506321142787351 -0.0044875556656048 1.4843191634393715 255 255 255
0.4378344916977075 0.4167493896700427 1.7008956253723833 255 255 255
-0.5933073899222414 0.0661064938992588 1.4382212197152544 255 255 255
0.9518365851916224 0.6819482760152131 1.6554741641688393 255 255 255
-0.2924956974052379 0.2944748260024941 1.5440019535111684 255 255 255
1.1644226669576674 0.7907266212862329 1.4643882954755869 255 255 255
0.1340294842487844 0.4923965155553461 1.5153791332755142 255 255 255
1.3229420276070467 0.8785153055658625 1.4239342166206082 255 255 255
0.2079538059950277 0.5385328168329191 1.5268665267537882 255 255 255
1.1999168356314875 0.7828518245503222 1.3326338091621945 255 255 255
1.0954348713463329 0.7445832058785182 1.2868158714518199 255 255 255
1.1116134432898783 0.7563102818666092 1.2841290064997044 255 255 255
0.0594979587428278 0.5060999855017607 1.4825594210832778 255 255 255
0.9235112917835009 0.8039757754537984 1.4726899623687251 255 255 255
0.8770664080208823 0.8283361122067548 1.4445674288738246 255 255 255
0.9735781656556490 0.8115906477683890 1.2758753241289069 255 255 255
0.8989167398461344 0.8189232127651920 1.2768129270966728 255 255 255
0.2223253258372651 0.5920179995539607 1.2862507015867113 255 255 255
0.9448416507616235 0.8209825127342691 1.2450666528958019 255 255 255
-0.0222796474354037 0.5718532956952851 1.3847206951058686 255 255 255
0.8046264993188492 0.7886494897978151 1.2702453353568126 255 255 255
0.1372426123382466 0.6233126372655544 1.3416649842641029 255 255 255
0.8918905537723827 0.8109782177876230 1.2289211125744917 255 255 255
0.8774706589569181 0.8131414594152364 1.2268409524368638 255 255 255
0.2145593374795254 0.6095174809373634 1.2757482320480555 255 255 255
0.8887113034407825 0.8183343183406002 1.2129725576840507 255 255 255
0.9288337069682235 0.8447139047046690 1.2016430313776318 255 255 255
0.7888790012011127 0.7854410270912275 1.1793476205693416 255 255 255
0.4375775051817359 0.7173111210260048 1.2601421378349267 255 255 255
0.1092256113670464 0.5977983568630920 1.2380791133722739 255 255 255
0.6975540101778285 0.3088046806174732 1.6670533983952449 255 255 255
1.0881597802515657 0.4919528148628141 1.6419779492067317 255 255 255
0.3342574910179763 0.3889996694187812 1.7035878150730106 255 255 255
1.0434195070145038 0.7672803470971918 1.3272535968226271 255 255 255
0.4249851789280488 0.7210692292927687 1.2727165519772474 255 255 255
0.1589227443282344 -0.0437525122726039 1.7085991260946471 255 255 255
1.4384406303123214 0.3681516925926900 1.7622042170926520 255 255 255
0.5048440788636974 0.1311278511353930 1.8092415388688416 255 255 255
0.0767569879597918 0.0401304876194750 1.6366364980713968 255 255 255
-0.0351946741366165 0.0332466256672040 1.6541449880086603 255 255 255
0.6909680337036480 0.3237539811669591 1.7876026880191898 255 255 255
-0.3049810788288568 0.0257872999618863 1.8369026459723055 255 255 255
1.2916744929652175 0.6048756125612593 1.6613420253819662 255 255 255
1.1576897421206047 0.5581059684666234 1.6179821286204659 255 255 255
1.0513797162049918 0.5459029248066798 1.6986362174401237 255 255 255
0.0329728699930979 0.3405497476622782 1.6343342350858880 255 255 255
1.1136763071545839 0.7523778702863482 1.6399293069335816 255 255 255
1.0674110831735539 0.7527529250123447 1.6154367400440310 255 255 255
-0.2942154249875751 0.2926918315733591 1.5436376533255542 255 255 255
1.0896040470554982 0.7920889447054367 1.4327012353473370 255 255 255
1.1356702377963601 0.7620146294378771 1.2905702190343380 255 255 255
0.6933860154672304 0.7451884562234650 1.4679768998377911 255 255 255
0.3521124443744865 0.6245364138426990 1.4583394566676482 255 255 255
0.9982693800728494 0.7978451314786615 1.3078962128480978 255 255 255
0.3283029244125626 0.6578710206003797 1.4352970671560421 255 255 255
0.9737934538855648 0.8118830403376509 1.2745024845138402 255 255 255
0.2193011452003355 0.6357500827260569 1.4036631250632796 255 255 255
0.2287740292143874 0.6136673410848870 1.3557577851262135 255 255 255
-0.1790478557670005 0.5069595823349995 1.3986763559170261 255 255 255
-0.0664403259114476 0.5475439538717428 1.3861390474830055 255 255 255
0.4853193437831262 0.7391197316977032 1.3647248104686938 255 255 255
0.1751701282382503 0.5996009372856459 1.2946805640102064 255 255 255
0.4157841883418314 0.7304110662330547 1.3570240743065209 255 255 255
0.1383416122434626 0.6230530274911135 1.3434963215005187 255 255 255
0.0828078986855149 0.6092502104771866 1.3451630114801718 255 255 255
0.1784595173570471 0.5984835342982482 1.2740841995773415 255 255 255
-0.1480316714451175 0.4875557081486903 1.2705110665848611 255 255 255
0.4588271402521273 0.7152496251949363 1.2852882897098041 255 255 255
-0.1876446551440326 0.5032186193789983 1.3040895534769454 255 255 255
0.8071498291671690 0.7931154443926022 1.2180557927553259 255 255 255
0.1418822310858201 0.6006490576400756 1.2718224035885388 255 255 255
0.0118002166354086 0.5911214328048526 1.3236120958566393 255 255 255
0.2188784403366801 0.6191397398448291 1.2471700512189123 255 255 255
0.1092815420426299 0.5926103108188414 1.2532840996783330 255 255 255
0.4374148227726291 0.7151799248378810 1.2597550103009332 255 255 255
0.0962418408753853 0.5963508074109001 1.2516752495832162 255 255 255
0.4127946155093574 0.0902373522182811 1.7801809690835810 255 255 255
-0.0771242463204542 0.0491668001180541 1.8086668565622093 255 255 255
1.0767813077875452 0.5614091411771618 1.6657048401930261 255 255 255
0.2960584149149472 0.0743406535245366 1.7190033121298995 255 255 255
-0.2717995046124030 0.3480160918350657 1.5325058763901716 255 255 255
1.0644798686702157 0.7939237094467000 1.4161457347714295 255 255 255
0.6353682295560548 0.7615851236968521 1.4042156903435501 255 255 255
0.8506378641806793 0.7702588657621643 1.2681857224607569 255 255 255
0.2864738686837223 0.5971682193320937 1.2973974712967493 255 255 255
0.1191582538488388 0.6133807564589469 1.3960501546422432 255 255 255
0.7671411640629406 0.7822943538219231 1.2650253529513398 255 255 255
0.1598850730680561 0.5997186406679900 1.2993251773183438 255 255 255
0.5113753475278529 0.7346533510715751 1.3072661400075827 255 255 255
0.0975176450540864 0.6027199482702326 1.3221380306375614 255 255 255
0.2893443851909576 0.6432513839177441 1.2786535182072374 255 255 255
0.4684019125779209 0.7150097907150603 1.2759724931061287 255 255 255
1.3453710094495208 0.4438048115605648 1.6940834808796787 255 255 255
1.0640490659243034 0.4708575228378120 1.7969650351861235 255 255 255
1.1288591137580299 0.7874133103378851 1.3710672821950816 255 255 255
0.3258159046600673 -0.0007623359074085 1.7305774803972724 255 255 255
-0.0014827139691775 -0.0389985250523734 1.7420918764200088 255 255 255
0.7699960869816713 0.3503046917605266 1.8354332647007530 255 255 255
0.7646697235144302 0.3758105034970249 1.7986016557795281 255 255 255
-0.3196832079694845 0.0964750389701082 1.7884809546161247 255 255 255
1.0553828577151507 0.5371151234472746 1.6791396781946015 255 255 255
1.1235179377976388 0.6568014962308548 1.6091830190598020 255 255 255
1.0311629334708914 0.7474497897341998 1.6334429468040295 255 255 255
1.0346239860121269 0.7595872340280767 1.6128236568761753 255 255 255
-0.2945858632837867 0.3169015612483652 1.5381998370125838 255 255 255
1.2250447739897581 0.8072906508862498 1.4733237418868370 255 255 255
1.0856012975523912 0.8145078602958882 1.4397968098825058 255 255 255
1.0332862643652643 0.7514985341884071 1.2743265988800410 255 255 255
0.7193536819848854 0.7584087370697432 1.4308972990695512 255 255 255
-0.0247256219646483 0.5200088133798886 1.4449512938841265 255 255 255
-0.0357713818061918 0.5351952574344958 1.4237853714431132 255 255 255
0.8978192650323500 0.8362683753538223 1.3780826564379698 255 255 255
0.3300531553015986 0.6686062803730439 1.3947986988076204 255 255 255
0.1189532024228672 0.6057882844089137 1.3888810215406151 255 255 255
0.1754986570609058 0.5945189376882554 1.3455260920871610 255 255 255
1.4197690312788867 0.3795500142642312 1.7252105938177325 255 255 255
0.9248955524752553 0.3713715910798308 1.8390162617973758 255 255 255
0.9203364129240885 0.3962364496728705 1.7976944593261961 255 255 255
0.6153007887514912 0.3344889968297120 1.6985355729393987 255 255 255
1.1572476809447785 0.5431845665771932 1.6262445207589180 255 255 255
1.2490797241739466 0.7872378996460037 1.6174257998772279 255 255 255
1.0520421926393020 0.7891788667726125 1.5303982147339141 255 255 255
-0.3017451788056681 0.0686990837628267 1.8281496632108896 255 255 255
-0.3159465339804925 0.1360506130558556 1.8371703583193320 255 255 255
0.0411438700476492 0.2830972556586198 1.6414488445150033 255 255 255
0.0303396746683395 0.3461534381474443 1.6253584908056213 255 255 255
-0.2001064857010774 0.2980117314418789 1.5567764213449173 255 255 255
1.1596743443991615 0.7840588824868593 1.5604555907470550 255 255 255
-0.4175856733037476 0.2708043355461007 1.5007662462906275 255 255 255
0.7266182804684426 0.0864772459218922 1.8686703496396528 255 255 255
0.1334601449617319 -0.0805232024690987 1.6392626359521718 255 255 255
-0.2713208147206923 0.0462164574047855 1.8224689642104948 255 255 255
0.6432806262772619 0.2453209919760346 1.8835794359964702 255 255 255
0.0543474510217583 0.2564778340718168 1.6448837543925583 255 255 255
0.1260636337831968 -0.1023885365114721 2.0616722849822722 255 255 255
0.3200985739409909 -0.0393294461915811 1.7672438226226173 255 255 255
0.1747569540148781 -0.0849068482040227 1.7123996487201509 255 255 255
0.2377648322191126 -0.0537434366880121 1.7298509180088075 255 255 255
0.0469430890131196 -0.0380334213581568 1.6340718336336417 255 255 255
1.3703130755855391 0.4682317197755133 1.7428959354684856 255 255 255
0.8267632973829748 0.3708770547647120 1.6606291901450270 255 255 255
1.0018451592089583 0.4855488074914796 1.6715736444259264 255 255 255
-0.1800572523485986 0.0229081297509062 1.5415109550905797 255 255 255
1.2902680405819469 0.5886755484001103 1.6520893313320033 255 255 255
0.0913341771310119 0.1728970443445199 1.6488193415302952 255 255 255
1.0889125917912539 0.5675637650144285 1.7191336093982343 255 255 255
-0.6571131383662330 -0.0473239939117085 1.8389256631195892 255 255 255
0.3357835840162489 0.0708659564517068 1.7592893715576110 255 255 255
-0.5421513831810447 -0.0321293208096645 1.4541049194064222 255 255 255
-0.5322125100873907 -0.0209470764840002 1.4665008408045699 255 255 255
0.0323676395913690 0.2469498412239521 1.6374435031480878 255 255 255
0.2543840802323218 0.3643739477637030 1.6869277245536227 255 255 255
-0.4824498359114344 0.0173749714644282 1.4654393334583720 255 255 255
1.1030914237927658 0.7588378092637650 1.6117110554382612 255 255 255
1.0693522235244828 0.7984636902797462 1.5894401595724155 255 255 255
1.1641977908451713 0.7907345335020066 1.4443540590117632 255 255 255
1.0879273298996583 0.7916191678216729 1.4978916624370839 255 255 255
1.2060320603638912 0.7905276382465876 1.3228587884263168 255 255 255
1.1962944122871448 0.7636217538690246 1.2393603329611729 255 255 255
-0.5554093779351195 0.2008338575066447 1.4584481117257355 255 255 255
0.7684792188037298 0.7756922575788090 1.2699903768408067 255 255 255
0.7150580017427224 0.8211683653514799 1.3472844929107843 255 255 255
0.5130634506552614 0.7337653661001351 1.3196787110655350 255 255 255
-0.0426410821310433 0.5458909206457248 1.4238122697058508 255 255 255
0.7864564137316368 0.7817753120354318 1.1859861833927852 255 255 255
0.1202677938365286 0.6175797087026513 1.3906891147001454 255 255 255
0.7811584717951963 0.7895328896107365 1.1764612749536596 255 255 255
0.0908826300805474 0.6081395470123638 1.3637254233371738 255 255 255
0.5188205372630001 0.8058865349654978 1.1932538251194860 255 255 255
0.8060605460017900 0.9001401336177768 1.1202438052632040 255 255 255
0.0435093023875290 -0.3673727105823553 1.6865060116817809 255 255 255
0.1119632248728184 -0.0964814587625673 1.9828201288568614 255 255 255
0.7263372343269510 0.1368658093971010 1.8084895922886977 255 255 255
0.1581024081300555 -0.0415883152326515 1.7180812854680951 255 255 255
1.4294452959019983 0.3835634950741389 1.7133470974046627 255 255 255
0.0626785155722644 0.0505124987574792 1.6390954499749846 255 255 255
-0.3110307009276427 0.0527484417462860 1.8268941960904925 255 255 255
1.0038299090578620 0.5312793305726287 1.6638176477760211 255 255 255
-0.2966185157984622 0.1197116922652341 1.8207446129391638 255 255 255
0.4593110908587903 0.4144108102242345 1.7324251467459710 255 255 255
-0.4583510618725468 -0.0025879978441575 1.4789759882131790 255 255 255
-0.4951340064826633 -0.0164183525490138 1.4567380435894974 255 255 255
-0.5236852370596672 -0.0206883886392114 1.4651344985875703 255 255 255
0.8306994906324174 0.6280852082799626 1.6031101395371756 255 255 255
0.0186641763228983 0.3459388192714394 1.6338196859941796 255 255 255
1.1181822115065643 0.8170332109591705 1.6113487320419999 255 255 255
1.2127060157194265 0.7611709513188316 1.2978014209978879 255 255 255
1.1879649585333834 0.7919519719333161 1.3969200199720149 255 255 255
1.2445565980038626 0.7941623337932180 1.2343086113147042 255 255 255
1.2280115951501331 0.7874339500439507 1.2103999184599417 255 255 255
1.0013847460501921 0.7825897236125892 1.3740887670553148 255 255 255
0.9295044507492136 0.8424260282279390 1.3900764066353049 255 255 255
0.9161351904326711 0.8456799886331137 1.3753821601320881 255 255 255
0.6947959967607031 0.7838272084478657 1.4017489369829814 255 255 255
1.1179417349430771 0.8636720741364856 1.1492131382030566 255 255 255
0.1562723689917549 0.5980653549712756 1.4022622841042480 255 255 255
0.3103778803414361 0.6489389036974842 1.3379456422357201 255 255 255
0.8260945916026063 0.7884777454007157 1.1742414526668572 255 255 255
0.2237271369600974 0.5859214294722321 1.2761070114747910 255 255 255
0.1257979566675358 0.5851682860168457 1.2624008369042952 255 255 255
0.1654079198503953 0.5971712516695766 1.2425077484372511 255 255 255
-0.1936860193483313 0.5003983915268493 1.3163258111357128 255 255 255
-0.1494722071434875 0.4949978595909923 1.2826441228062713 255 255 255
-0.1884745614044227 0.5019649367392647 1.3051962684295697 255 255 255
0.5470516719938607 0.7672444073610509 1.1798044311243685 255 255 255
0.8892236246703753 0.9028496802663462 1.1215031341201485 255 255 255
0.2343363692463525 0.6643385801835944 1.2233355057262116 255 255 255
0.2002053214314077 0.6533092955429689 1.2142673337756129 255 255 255
0.7615285727209236 0.1781158333770111 1.8888770197852127 255 255 255
1.3191337094746878 0.4028909949983714 1.6655876963891529 255 255 255
0.6810509244992780 0.3207789526039591 1.7086608153452474 255 255 255
1.1385702566110574 0.6360928196995608 1.6157525693597510 255 255 255
0.9607208311449389 0.5865652362040068 1.6686714268668839 255 255 255
1.0747546216596278 0.7050768481982141 1.6353042201253394 255 255 255
0.9778244322143337 0.6662125270214636 1.6532637386300753 255 255 255
0.8761829152488474 0.6472325761061128 1.6424295525722741 255 255 255
1.0323728747583982 0.7911251899616363 1.4122374809231286 255 255 255
0.5327517312639847 0.7364336159750402 1.3609499814363222 255 255 255
0.0083317989835527 -0.4230028818557168 1.6820737235688863 255 255 255
-0.0267030500602385 -0.3133879147928792 1.6807700795280329 255 255 255
0.1738254278964746 -0.0883605608219939 1.9572686054059893 255 255 255
1.4150509670474065 0.4354103574443400 1.6986096794536190 255 255 255
0.0580404808892272 -0.0335463655928194 1.6300988523499704 255 255 255
0.6126188412245672 0.2612750283062026 1.8111348110335870 255 255 255
0.7024943518543925 0.2882291909232677 1.8259111263908849 255 255 255
-0.2520122751764928 -0.0071124441095805 1.8046118778811078 255 255 255
-0.0773630562881786 0.0283416518582085 1.6794827692102743 255 255 255
0.8466969239935001 0.3953417251683566 1.8331099600524059 255 255 255
-0.2423811661888010 0.0116699637927217 1.8011864161394608 255 255 255
1.0553312919950955 0.4797003699823179 1.6686345072664928 255 255 255
1.1457841711990175 0.5751738699040332 1.6424630652109973 255 255 255
-0.4985623577945544 -0.0145458081139541 1.4622840635004306 255 255 255
0.9207280640059601 0.6450949033479807 1.5891764808441682 255 255 255
1.1137386925681576 0.7881371674109694 1.5565748637208832 255 255 255
0.1344051444291070 0.4910408780716775 1.5142529755074072 255 255 255
0.6601966921775775 0.7355456703642309 1.4211680329540792 255 255 255
0.9610494747115119 0.8204170567110181 1.3329498452730588 255 255 255
0.9372097654571476 0.8473487131021393 1.3728825168865022 255 255 255
0.3439251435514471 0.6504411903166695 1.4330958187383773 255 255 255
0.9270342769606525 0.8112935275370923 1.2546993602368985 255 255 255
0.3717541131920385 0.6699164441362244 1.4247894676083841 255 255 255
0.9711166008065097 0.8624866933208946 1.2102531386632291 255 255 255
1.0876435478116306 0.8901153960831536 1.1578229081237730 255 255 255
0.7060116417056719 0.7371051218847668 1.1598176092992389 255 255 255
0.9341200341570008 0.8690030151994570 1.1981731826902102 255 255 255
0.2280402251025375 0.5956410007413755 1.2776642259020177 255 255 255
-0.0501129697700462 0.5408237494544932 1.3889838276683251 255 255 255
1.0151266852521186 0.8825849015066956 1.1358899804883420 255 255 255
-0.0990750406603817 0.5495677733524408 1.4132089913503187 255 255 255
0.4110989212502556 0.7166263098564229 1.3049310106772527 255 255 255
0.6037344576181112 0.8190861013693118 1.3251392323905373 255 255 255
1.0034095098540705 0.8919937778382083 1.1397089304248214 255 255 255
0.3572674788547445 0.6917636217626306 1.2799886685026909 255 255 255
-0.0511081499868057 0.5641034960914909 1.3647037850082580 255 255 255
0.5246852158141300 0.7760102082594340 1.2440545101451796 255 255 255
-0.0734873318870966 0.5412363109285838 1.3050194874501102 255 255 255
0.1085623849040447 0.5986297254158508 1.2367901730088970 255 255 255
-0.1380663105903313 0.4928243637662524 1.2503529498912718 255 255 255
-0.2149078770593108 0.5183424534949437 1.3378021741203905 255 255 255
0.2651672795356301 0.6608596516846386 1.2099467269359239 255 255 255
0.6052576600675881 0.7717335891017694 1.1325514927812588 255 255 255
-0.1800709175119287 0.5021694885418873 1.2815316532493803 255 255 255
0.2338770690731398 0.6597871860073035 1.2193896713830767 255 255 255
0.1147881732524185 0.6087024440050306 1.2236216627795100 255 255 255
-0.0968894620049570 0.5157089320992263 1.2307555691723966 255 255 255
-0.0047270969238005 -0.0383103422200062 1.7854080867150230 255 255 255
1.3652345633705822 0.5599760546055239 1.7398850697792181 255 255 255
0.2916204611143459 0.4068033501861497 1.6719613169387939 255 255 255
1.1867335749647738 0.7689836752023562 1.4718646891359191 255 255 255
1.2166522526807171 0.7671925124313885 1.2593049310647086 255 255 255
0.3113989195974440 0.6411829265388631 1.4544905880222334 255 255 255
-0.0124569983403399 0.5410410218824941 1.4248837962036633 255 255 255
0.5170796821253232 0.7548967431037079 1.3778265271253245 255 255 255
0.0534178339412059 0.5999718463580805 1.3913593146940659 255 255 255
0.3932481834072856 0.7059203561304632 1.2790028507013211 255 255 255
-0.2248620552108375 0.4912553173087068 1.3577138714234827 255 255 255
-0.2017300817703567 0.5066994657741832 1.3449393804188414 255 255 255
-0.1556058828727485 -0.1553717041780154 1.7886926695037220 255 255 255
0.0655772103473948 -0.0119094846569237 1.6258229951927028 255 255 255
1.0130781093511629 0.6122822749783166 1.6589291149286605 255 255 255
1.1026361219488452 0.6441888799397248 1.6394621805030161 255 255 255
1.0434871356474078 0.7901107349177412 1.4296226674682142 255 255 255
0.3915725558834469 0.6214480080519680 1.4646504931412734 255 255 255
0.8110398321609207 0.7826443993933587 1.2498496643674777 255 255 255
0.0980070313620796 0.5988870638478225 1.4037676825498679 255 255 255
0.2741334479229423 0.6321290328562483 1.2442703073475769 255 255 255
0.1769265350378761 -0.0331852563814641 1.6838281614487869 255 255 255
0.2046595109841611 0.0291717702025460 1.6564835128957789 255 255 255
0.6971787783892296 0.2935688239148040 1.8000386948984453 255 255 255
0.1419007104034584 0.5602177026132087 2.4766476961420576 255 255 255
1.1302446868102631 0.7169270415454472 1.6360213202866201 255 255 255
0.3322386726927915 0.4219449660128749 1.6458001403803415 255 255 255
1.0265831286346057 0.7531437494260942 1.6124033659809918 255 255 255
0.2487466048673364 0.5760738639795635 1.5105311143087938 255 255 255
0.2173383499072603 0.5655503972652021 1.5140094732902707 255 255 255
0.3258237924295537 0.6222246333414709 1.4679282068498583 255 255 255
0.9061505843609687 0.8352375831089365 1.1962541640151025 255 255 255
0.1395099386996059 0.5863964714645267 1.3055709331153951 255 255 255
1.1737053809820699 0.6539336718994999 1.6526063351126359 255 255 255
1.0436087289978087 0.6576108014413107 1.6184744051139814 255 255 255
0.6300915234371427 0.2086814547966247 1.8648192952647022 255 255 255
1.2704236265268847 0.5418028454877581 1.7111363153506116 255 255 255
0.1214785121832938 0.1912509680770444 1.6948727243956867 255 255 255
0.7118401776671988 0.7851238336868311 1.4229169865443207 255 255 255
1.0582778007682947 0.7930585498320255 1.4141933748143156 255 255 255
-0.2631945285017840 0.3349358665369140 1.5300274497272728 255 255 255
-0.3768109276221737 0.2916545767319501 1.5178849896726385 255 255 255
0.1337144802606058 0.0163044849712453 1.6550544837808623 255 255 255
0.9693158795950119 0.6452698877230407 1.6600036037988701 255 255 255
0.8973992244894458 0.6625952193379652 1.6025101004804854 255 255 255
0.0306915175819924 -0.4099539142810755 1.6832863346471694 255 255 255
0.3027936692363777 -0.0290922660702218 2.4029031668050385 255 255 255
0.1499095046280723 -0.0348585048056704 1.6818313051578233 255 255 255
0.0505094981325769 -0.0335740952622503 1.6219608293325791 255 255 255
1.3179889039166284 0.4814069533712555 1.6561265872398323 255 255 255
1.3500883696440251 0.5565216965290660 1.7124792046112107 255 255 255
0.7195125307968864 0.3322222407663205 1.7877267688194962 255 255 255
1.2343748203107197 0.5135867903107041 1.6331228803896742 255 255 255
0.0857932772305929 0.0780602596679927 1.6472829828772717 255 255 255
-0.2794872462256064 -0.0152980907599208 1.8274106271442889 255 255 255
-0.2230317271261627 0.0189527377889160 1.7961190860451883 255 255 255
-0.2766391811809119 0.0189592242316552 1.8355215373700817 255 255 255
1.0699675423037101 0.5553961715528379 1.6553340013916600 255 255 255
-0.3236414601321325 0.0794632723888418 1.8307185321567867 255 255 255
-0.6561726409825006 -0.0554649484956140 1.8342425147488863 255 255 255
-0.6440516103626202 -0.0469427825349397 1.8334829448488463 255 255 255
-0.2493824324715169 0.0617760632389128 1.5384180670700380 255 255 255
-0.6693621418643039 -0.0110711208560166 1.8445180274726685 255 255 255
1.2001731290532285 0.7267889199511235 1.5080374227844422 255 255 255
-0.5377215639176730 -0.0278645304650404 1.4732243623247534 255 255 255
0.0368499228148744 0.3512518347578455 1.6322168171047107 255 255 255
1.2134065209471512 0.7924859306292245 1.0313095314559053 255 255 255
-0.7220884749605746 0.1759627439398785 1.8326366802726954 255 255 255
0.9791585744654578 0.8087175372073423 1.2874581337049351 255 255 255
0.9610594724109056 0.8020568770620891 1.2542972253895641 255 255 255
1.1323623540252896 0.8511385710290398 1.1597408441269685 255 255 255
1.1154580377823518 0.8389599045613281 1.0891428188033583 255 255 255
0.1917871549308110 0.5556570145333080 1.4646828332897819 255 255 255
0.1647278488332553 0.5520402635075214 1.4583372247127855 255 255 255
-0.5947295269339751 0.1897820315490995 1.4485189460050485 255 255 255
0.0631764256347830 0.5687495945715060 1.4454186126212960 255 255 255
0.4922468118294496 0.7482148389873480 1.3148966975889724 255 255 255
0.9823206728844589 0.8595806493891516 1.0317792473110092 255 255 255
0.9961273592603197 0.8924793629695484 0.9308969121813453 255 255 255
-0.1882708226693479 0.5016449722996512 1.3492159411975226 255 255 255
0.5304773373171088 0.7728569631511171 1.1081981980319409 255 255 255
-0.1866042212347154 0.5022722820943166 1.3301461030280448 255 255 255
0.7376185275699001 0.8782280765044703 1.0431570229066267 255 255 255
0.1349798093607317 0.6337633829676879 1.1959554917116275 255 255 255
0.0602967059746184 0.6074885555495388 1.2061797467421727 255 255 255
0.0855378404980023 0.6220615761351671 1.1848996713483566 255 255 255
0.2206412895612733 0.6672178641271547 1.1315119384856267 255 255 255
0.2031105635944617 0.6657832898926557 1.1317236782881959 255 255 255
0.4650188027570611 0.0314217638069960 3.6486743215855482 255 255 255
-0.1263181471998389 -0.2050219785183349 1.6569700358733037 255 255 255
0.1613148848326538 -0.0521779569738784 1.7159374214640835 255 255 255
0.1006000058476397 -0.0268270818067569 1.6624506294661074 255 255 255
0.1067231230102834 0.0701207997110203 1.6819955560379611 255 255 255
0.0859574329976895 0.0907284032787643 1.6440412035919314 255 255 255
-0.2001958551598992 0.0109853985030570 1.7881618724155111 255 255 255
1.1342542661551853 0.6221722112914709 1.6651301581203750 255 255 255
-0.4623901873945733 -0.0025204105741299 1.4771028238618520 255 255 255
0.4805291810355161 0.5313031941545072 1.5985324824390579 255 255 255
1.2015405755843602 0.7867117450525214 1.3194816117588886 255 255 255
1.2409879591856967 0.8125299274342872 1.1941334770198377 255 255 255
1.2128243981164237 0.8100734811406749 1.1376267488276102 255 255 255
1.2370409903160002 0.7963335271318286 1.0771017864940262 255 255 255
1.2345654113678561 0.8207113155145880 1.1126598680700654 255 255 255
0.1880296755718915 0.5011335654384199 1.5352447599359516 255 255 255
1.1464685232876493 0.8204272866016531 1.1100636651093021 255 255 255
0.9391435075786791 0.8481826356452560 1.3719259257671181 255 255 255
-0.7351996277121837 0.2218530601843209 1.8342955647666761 255 255 255
