ply
format ascii 1.0
element vertex 682
property double x
property double y
property double z
property uchar red
property uchar green
property uchar blue
end_header
0.1143580027521756 -0.0716290900579412 1.6556951076893858 255 255 255
-0.0934248493561914 -0.0777514908418518 1.7342473933460472 255 255 255
-1.7527230883403275 -0.3680514132432929 1.6267237398379617 255 255 255
-0.5640909814639361 -0.0856975661174393 1.7203146198319175 255 255 255
-0.2096084956863175 -0.0094954817943062 1.5282088639829448 255 255 255
-0.3083131841559297 -0.0371980488512027 1.5271508709779305 255 255 255
-0.3818205570248026 -0.0092219645826930 1.7233423336211615 255 255 255
-0.6866656880659825 -0.0524998318412213 1.7126327153288550 255 255 255
-0.4060202311517989 0.0157022779527984 1.7065170911412508 255 255 255
-0.8362840181659879 -0.0568836185058501 1.7046195973375795 255 255 255
-1.0881723146459175 -0.0682542544054117 1.6862494847603644 255 255 255
-0.7843539393878078 0.0374872563356634 1.7066943460939683 255 255 255
-1.3167383920156652 -0.0138918902980083 1.6732146658805274 255 255 255
-1.5721626567467166 0.2055361187838031 1.6412698228892235 255 255 255
-1.6281844451381629 0.2269993342825745 1.6355916740113789 255 255 255
-0.4320486819380814 -0.0758013859173718 1.6960179508079056 255 255 255
-0.3290517903663854 -0.0132345504029425 1.7282163037561560 255 255 255
-0.3484895605748264 0.0024193804552617 1.7308227283846520 255 255 255
-1.0486884674085162 -0.0869234839427025 1.6898136717701990 255 255 255
-0.3143542950605271 0.0552753331078092 1.5718482692375764 255 255 255
-0.7220401337695895 0.1284945969112482 1.7063245061653614 255 255 255
0.0907572395042835 -0.0248611633364180 1.6943377602552934 255 255 255
-0.3298832127733036 -0.0527032915170995 1.6317369584004524 255 255 255
-0.3145763163460735 -0.0418080654658670 1.7277806352968739 255 255 255
-0.3911259820981483 -0.0507802174096492 1.7212546121306183 255 255 255
-0.3617060520764657 0.0142981062541314 1.7290911436685263 255 255 255
-0.6204974982324920 0.0041105758656039 1.7157889937668429 255 255 255
-1.0206425289521410 -0.0119533043794420 0.8493896676719114 255 255 255
-0.4483100744629773 -0.1244363576162590 1.6933406435327392 255 255 255
-0.3070931023007120 -0.0302863075511635 1.7242722226745855 255 255 255
-0.5687601524861208 -0.0283393051341072 1.7205430748882620 255 255 255
-0.8517233575020993 0.0215580255163834 1.7030277966335308 255 255 255
-0.8063579906559967 0.0590010817971256 1.7091152410961508 255 255 255
-1.1134478123940701 0.0478971065253435 1.7257355300674928 255 255 255
-0.6287469181938690 0.1551790480779308 1.7265487632903760 255 255 255
-1.1238094601540964 0.0696802424606950 1.6991556751822694 255 255 255
-0.7644780866885941 -0.1776432063289855 1.7098697258240692 255 255 255
-0.1899649690200533 -0.0469516827938214 1.5419772478556268 255 255 255
-0.4427108009310601 -0.0807052947067471 1.6343005176490664 255 255 255
-0.0728152495022672 0.1134355571012462 1.7233874382414618 255 255 255
-0.2649207306122205 0.1135172572303920 1.6653743363303377 255 255 255
-0.6670658920477623 0.1006845799927780 1.7093939249409829 255 255 255
-0.4834788999877143 0.1144795379447082 1.6778167652882710 255 255 255
-0.7088220818589672 -0.2338184648955540 1.5276218007362026 255 255 255
-1.7514536819530293 -0.3785103658289234 1.5350465157494702 255 255 255
-1.8145194073206596 -0.3897936644462217 1.6845642016249798 255 255 255
-1.6681162690377604 -0.2200116329625986 1.6164529525839306 255 255 255
-0.3005996879797834 0.0584586092976807 1.7415965601262968 255 255 255
-1.7053739303430184 -0.1207519869920215 1.6709431525950968 255 255 255
-0.3742867844711557 0.0163471374673676 1.7215055235408867 255 255 255
-1.1041023126116256 -0.0636232525104956 1.6850675036824245 255 255 255
-0.1920047618422141 -0.0346688908415743 1.7559160731048158 255 255 255
-1.1734253941700490 -0.2122460636057034 1.6840118483891642 255 255 255
-0.3679560487090314 -0.0014489308129252 1.7272667354764355 255 255 255
-1.0812122499172010 -0.1322816538746733 1.6899754450377831 255 255 255
-0.7603468595902086 -0.0522026722237324 1.7101626226119033 255 255 255
-0.2927005556275156 0.0422002431730399 1.7174940438072170 255 255 255
-0.7950481907672010 -0.0028853005697967 1.7063619133657897 255 255 255
-0.3693704820828083 0.0716240755983537 1.7253469544778657 255 255 255
-1.1855162913249420 0.3545679852423724 1.7113522995800352 255 255 255
-1.1230275318738383 -0.4899046435632113 1.7273167685244211 255 255 255
-0.4307825442887840 -0.0739852913208168 1.6604920143833324 255 255 255
-1.6358804656508434 -0.2257189477943971 1.6439976821848539 255 255 255
-0.2240214363366775 0.0636358472618281 1.6923491169196438 255 255 255
-0.8431019382031288 -0.0531982815020561 1.6977969969955657 255 255 255
-0.3065853283050268 0.0789618569228367 1.7271241859380133 255 255 255
-2.3923560738928149 -0.2526311604871450 1.6338139303883255 255 255 255
-1.0678378743813868 -0.0846489593158266 1.0693477576143016 255 255 255
-2.3998163960898293 -0.1262143977275798 1.6605442261890220 255 255 255
-1.2318827144728157 0.0891188412200368 1.7119693000807255 255 255 255
-2.4192932303613652 -0.0653783788511486 1.6166365627050947 255 255 255
-1.0649185241644921 0.2084962683337270 1.3608064095209444 255 255 255
-0.3809149427783183 -0.0016669039071227 1.6505032890726916 255 255 255
-0.7378320020160195 -0.0197804305843388 1.7094277809765106 255 255 255
-0.2676326674647740 0.0737581215725172 1.6988078647863318 255 255 255
-0.2558875382384826 0.0775152849952718 1.6171409999444961 255 255 255
-0.6503689561337010 0.0604949177776124 1.7137778416164771 255 255 255
-0.6024579755072574 0.1593526251153670 1.7420415987728879 255 255 255
-2.4215627414496286 0.1140519567303451 1.5722019206987969 255 255 255
-2.4304487533650629 -0.0641623423786711 1.6502387822360589 255 255 255
-1.6597601680235887 -0.1852265004568054 1.6490796148264826 255 255 255
-0.7373950220063195 -0.0318016927045811 1.7096854505458379 255 255 255
-2.4296015755543210 0.1324686589073333 1.6023113446196486 255 255 255
-0.8500554042467960 0.0932958425505312 1.6988750667785053 255 255 255
-2.4072196798211625 -0.1937401760800579 1.6771663193487631 255 255 255
-0.8973935313900200 -0.4949205566441849 1.7861156154692335 255 255 255
-0.8488608092871530 -0.3054223374142201 1.5511747170721435 255 255 255
-2.4236157518701211 -0.0485386948484402 1.6754825936195896 255 255 255
-0.9425760991861019 -0.5005620333649308 1.7710277051701766 255 255 255
-1.2155120687834700 0.0750686097767836 1.7868853166543133 255 255 255
-2.4169456973447048 -0.0343827376463799 1.6316254078213142 255 255 255
-2.4533162616856505 0.0845500298211755 1.6436397500301969 255 255 255
-0.7373236039500231 -0.3404433969395341 1.7105011698064305 255 255 255
-2.3715197512474004 -0.2226569148374872 1.6244007573239774 255 255 255
-0.7235705839091620 -0.3438676731489403 1.5733704151863179 255 255 255
-1.6912703225110457 -0.4315769172961490 1.5286823404675274 255 255 255
-0.7503365073708501 -0.2107829402682042 1.7106110975470745 255 255 255
-0.7842750525437245 -0.1989644082178164 1.5776405290187681 255 255 255
0.2087924356886442 0.0163403536327582 1.7461189275440876 255 255 255
-0.2136851097772830 -0.0390796445064257 1.5987376044181529 255 255 255
-0.2017346389818400 -0.0231106669490400 1.5287997973694125 255 255 255
-0.1033276136280912 -0.0073719759095230 1.7402128364050116 255 255 255
-0.0244777487826155 0.0156204516325660 1.7487298151781685 255 255 255
-0.0218209336522470 0.0248978990761833 1.7509637869670591 255 255 255
-0.8843715721987362 -0.0881271986331020 1.6936331411481049 255 255 255
-0.1179911097989692 0.0302975431984682 1.7361134298333072 255 255 255
-0.0808294652876256 0.0384257770682608 1.7435457192655388 255 255 255
-2.3943892169317040 -0.2184599876271892 1.6355688950165099 255 255 255
-1.1740865713803621 -0.0489768355450137 0.7090943821593954 255 255 255
-0.2537242734365162 0.0593795640855992 1.7076098643252280 255 255 255
-0.2498096887911340 0.0685043648032319 1.5777253117436940 255 255 255
-1.2111204911858229 -0.0215788788680398 0.7132030681840147 255 255 255
-1.0384292710523768 0.0059241468982294 0.8210105284162319 255 255 255
-0.8787318028240807 0.0372303143806004 0.7572895962139389 255 255 255
-0.2727565036683162 0.0916939901181575 1.5997957920178862 255 255 255
-2.4057764096737522 -0.0625114549951888 1.6425109842447227 255 255 255
-0.0369743524897976 0.1114988850111982 1.7222388907386872 255 255 255
-0.2875247365491909 0.0913985360821252 1.6473559107746034 255 255 255
-0.6664124465479943 0.0874130727025640 1.7069844050401288 255 255 255
-1.3399170648320773 0.0543555743152120 1.6970459409232550 255 255 255
-0.2184803408669893 0.1236378026949176 1.7232246154186974 255 255 255
-0.2386418182958394 0.1329286253075964 1.7113147047716977 255 255 255
-0.8260260944715547 0.1034252095469833 0.9106545603830356 255 255 255
-0.4282114650530637 0.1232965246243760 1.7193428501046846 255 255 255
-0.8998327273516082 0.1101910770960691 0.9909586980609917 255 255 255
-0.9258714726628858 0.1076865967005136 0.6760234230603103 255 255 255
-0.0988292708327728 0.1535731611887194 1.7323248305393513 255 255 255
-0.8776186348112045 0.1262295411019100 0.9628284795085151 255 255 255
-1.3218812134796636 0.1147287549758849 1.6818275105248413 255 255 255
-0.8340298930493408 0.1514605597531224 0.9785804764517851 255 255 255
-0.8178661718696705 0.1562978165766900 0.8680329698298805 255 255 255
-0.8428370339820450 0.1756767111470875 0.9094297187448142 255 255 255
-0.8611317791389244 0.1981536698637562 0.9360350880571171 255 255 255
-1.2931367519219030 0.2989967214464624 1.6720335319377639 255 255 255
-2.4486223042079311 0.2929752162810005 1.6192579235139191 255 255 255
-1.3990830567355053 0.5648228732143862 0.7681146874782903 255 255 255
-1.3812136207970414 0.5742312755673205 1.3265748633687031 255 255 255
-1.1574385267189777 0.5888839833896790 0.7981574521309889 255 255 255
-1.1042756692689133 0.6062781018499471 1.1268522202872622 255 255 255
-1.0035116764967700 0.6328425271194481 0.7471718640829650 255 255 255
-0.8134458503767512 0.6518295258100757 0.9436491898692787 255 255 255
-0.6990786170160167 0.6961786568680952 0.5784509698960916 255 255 255
-0.5335498642835796 0.6942087089655090 0.5674854340398217 255 255 255
-0.2912679991237894 0.7504727100271933 0.8257984057733054 255 255 255
-0.3722378702371967 0.7881215211787188 0.3012762359350424 255 255 255
-0.3369016552878872 0.7873476615793371 0.4338944569778299 255 255 255
-0.3400932228345940 0.7948902688982749 0.1030265683267411 255 255 255
-0.3109700886889021 0.7952797692584833 0.3610126531633321 255 255 255
-0.3323401776426171 0.7985872073620977 0.1110896671650833 255 255 255
-0.1829479175333066 0.7836988361969341 1.1895162785959048 255 255 255
-0.1546403203375233 0.7764951455441182 0.9742400367448329 255 255 255
-0.2539658577323767 0.8014594053602022 0.4325041199528076 255 255 255
-0.1355066932044848 0.7728122828937096 0.9985314692838008 255 255 255
-0.2437487627257404 0.7478202222738983 0.5610969547680433 255 255 255
-0.0339834517484103 0.7865606200961253 1.2845402801783301 255 255 255
-0.0280965797074249 0.7858380635080691 1.2943817522621668 255 255 255
-0.1172287784523667 0.7977550446351260 0.6154577092155116 255 255 255
-0.1557513903449042 0.8193702357053221 0.4447152314933508 255 255 255
0.1564541216455950 0.8195955907136270 1.4813006469561678 255 255 255
-0.7081112958738416 -0.2411093464102929 1.7016950299890095 255 255 255
-1.6740802193655924 -0.3991662795082682 1.4946054704918001 255 255 255
-0.3943604228341480 -0.1350390116120754 1.7327882324301429 255 255 255
-1.7814765919635214 -0.3880979290630862 1.6423200673749196 255 255 255
0.0277654148451605 -0.0006428148892534 1.7396364015302903 255 255 255
-0.2180985404352075 -0.0203219029751466 1.6690482297269598 255 255 255
0.1559180370082536 0.0474565073111060 1.7606648300282506 255 255 255
-1.6941099734122496 -0.1964644685750869 1.4993804289349857 255 255 255
0.1248983850954875 0.0765347209161211 1.7549041351833070 255 255 255
-0.3192534462491642 0.0331318942184376 1.5263534007777382 255 255 255
0.2119304212029651 0.1613661840960752 1.7363995318799810 255 255 255
-0.8543499710860587 0.1254859252674315 0.9102164713782654 255 255 255
-1.5243295561187031 0.1736859169761005 1.8129747725327263 255 255 255
-1.3653788046132647 0.1923009254626593 1.6904006341999889 255 255 255
-2.4228236387312014 0.3144819348680779 1.6710141791584321 255 255 255
-1.4562089362912805 0.5436395161513226 1.1071413286118166 255 255 255
-1.3267493324351709 0.5673377758766496 1.0747482576436473 255 255 255
-1.1401143896757824 0.5921507946910530 1.5173989583754242 255 255 255
-1.1744234951166312 0.5995226514271703 1.0577647597688147 255 255 255
-0.9612935427561968 0.6174161991475231 1.1166692797012940 255 255 255
-0.6532247189436372 0.6671804357090697 0.6170244519172885 255 255 255
-0.4409404855261729 0.7316504563832128 0.5227079088715617 255 255 255
-0.1697295225578522 0.7792509197970329 0.5377015519261674 255 255 255
-0.2372258809322316 0.8114587788524504 0.2410833221907263 255 255 255
-0.0722320282019346 0.7881739062853428 0.9374030669402336 255 255 255
0.0121692807876475 0.8117378211697908 1.1899244532222362 255 255 255
0.0395192723837630 0.8109416565138616 0.7967883161970146 255 255 255
0.0449688841530076 0.8130422312616936 0.8076029781819081 255 255 255
0.0455474431682636 0.8154329282913249 1.0045813246154163 255 255 255
0.0325085605482478 0.8148332334137440 0.5506094648884152 255 255 255
-0.0218420122528018 0.8592084186711461 0.7169477773972673 255 255 255
0.0581077924554148 0.8167740499315350 0.7446353415434666 255 255 255
0.0593251077205386 0.8226957922894631 0.8151240501655588 255 255 255
0.1770542014570324 0.8165691832728186 1.5232871699484285 255 255 255
0.1791523047410912 0.8211399095819605 1.5737386529821293 255 255 255
0.2125439832464266 0.8130999915047883 1.7248820163411818 255 255 255
0.1818521334331731 0.8176407609971337 1.4326762700329736 255 255 255
0.2092034648482297 0.8198177882889510 1.7392022054438314 255 255 255
0.0319911514910176 0.8504513012798054 0.4512241357903680 255 255 255
-0.7425106982853507 -0.2220300912225914 1.7077410943697444 255 255 255
-0.7713372918066935 -0.1976259964031110 1.7089516767311101 255 255 255
-0.7809114131685302 -0.1996792121257491 1.6990085000712813 255 255 255
0.2897930602371517 0.0898145496631626 1.5058589737976789 255 255 255
-0.2752391880010929 0.0470763780257591 1.7366913307300411 255 255 255
-0.8563132662401797 0.1746182465618349 0.8966295228405596 255 255 255
-1.0873908708603501 0.6049791242499967 1.1225928148232160 255 255 255
0.1228399358340055 -0.0919510506348895 1.5947254334189189 255 255 255
-0.7042829348699775 -0.2390526101391664 1.5356532314908575 255 255 255
0.0804967212281351 -0.0519564042515804 1.6890328202257505 255 255 255
-1.7037921426991995 -0.4050249578475434 1.5757623272460601 255 255 255
-0.7789233229641219 -0.1831471078194919 1.7201226552567270 255 255 255
-0.2038904374038562 -0.0225712033068077 1.7129494476430125 255 255 255
-0.1993080734912711 -0.0000841637699711 1.6259490572794615 255 255 255
-1.6880291539660846 -0.1921799022641779 1.4920841878123188 255 255 255
-0.2210191059105009 0.0316644259357599 1.7101709651906063 255 255 255
-0.2867091404542177 0.0510520949808634 1.5732339976705365 255 255 255
-0.2260639613304056 0.0397082008172469 1.7148247540942811 255 255 255
-0.2924033513287458 0.0996699658600797 1.6128547083403468 255 255 255
0.1724921162443993 0.1438188323416629 1.7324853598079204 255 255 255
-0.8750014634119410 0.1019674994068870 0.9530063247952030 255 255 255
-0.8560994752314333 0.1222951706595169 0.9630580822960608 255 255 255
-1.1745523308080843 0.6503537855842089 0.3777932056622379 255 255 255
-0.7091098605110107 0.6568308445965430 0.6536421935452139 255 255 255
-0.6569192625810945 0.6868591129874817 0.6377231667493746 255 255 255
-0.4974677278420182 0.6974716316559147 0.6824497102708699 255 255 255
-0.2529292037462941 0.7597431865326519 0.6137060359812062 255 255 255
-0.2068639091566196 0.7691517341838261 0.6694499067660302 255 255 255
-0.1582722808806647 0.7730942529445946 1.1668952611939112 255 255 255
-0.1962325434449178 0.7742930029325107 0.6201618574278621 255 255 255
-0.1009671419615699 0.7888990203631001 0.6228518095018256 255 255 255
-0.0013030833690663 0.8049407502205745 0.6279243083875831 255 255 255
0.0942929278464568 0.8039824078785771 1.4570143883414577 255 255 255
0.0042936836682923 0.8135310093304087 0.6058630603013353 255 255 255
0.0192939455408161 0.8137102135281156 0.7029173727107589 255 255 255
0.0400223829019239 0.8146164035594117 0.9940599652387307 255 255 255
0.0536835619108134 0.8225564049829381 0.8052465294625977 255 255 255
0.0572808679853631 0.8177639511211017 0.7440457171747519 255 255 255
0.2000319838686551 0.8055421600348449 1.7407623126252894 255 255 255
-0.0102064919051226 0.8444371026996857 0.4534918194557700 255 255 255
0.1739179791540906 0.8111791375492388 1.5799392222667983 255 255 255
-0.7794876826815234 -0.1922658828386492 1.6034330909656962 255 255 255
-0.7916446679118607 -0.2024276047533007 1.7055329452193142 255 255 255
-1.6331720839280166 -0.2193475669043566 1.4499863914258446 255 255 255
-0.2796801078943396 -0.0190310311162141 1.5267187462412197 255 255 255
-0.0939390931731456 0.0379601162796075 1.7399060833673683 255 255 255
-2.4977959789923592 0.2943231078802930 1.5900725804326152 255 255 255
-1.3997140308555771 0.5584841395302159 0.6084256182859485 255 255 255
-0.9559068033205664 0.6282021717372996 1.0884735688157856 255 255 255
-0.2487029937368799 0.7751400789256365 0.6029744401786098 255 255 255
-0.2022145277461043 0.7668984372381695 0.6027087011752824 255 255 255
-0.1851096696941723 0.7736099440980753 0.6241557645754287 255 255 255
0.0491749831345949 0.7751237289685289 1.8283628521516846 255 255 255
-1.6259917265877784 -0.1824151496277397 1.4525670323218043 255 255 255
-1.3383715267439200 -0.0186674611366087 1.6848544123031886 255 255 255
-0.9554979675020127 0.6203781024746287 1.1091791708003464 255 255 255
-0.1108930130484522 0.7831859667508745 0.6125382197574619 255 255 255
-1.6990610536889736 -0.3929592278120193 1.5132426249031563 255 255 255
-0.2581015226640240 -0.0739797994836446 1.7385246232665530 255 255 255
-1.6696066928515418 -0.2079738404341803 1.5409512498782023 255 255 255
-1.3341388626070909 -0.0059508339552186 1.7298181657956277 255 255 255
-1.3527454930393272 0.1515441424639903 1.6775681429746601 255 255 255
-0.6980425158581298 0.6937033244041986 0.5225880733912265 255 255 255
-0.4180699278188000 0.7421011319062358 0.6154274662277404 255 255 255
-0.2469699275689095 0.7758304188740210 0.6010613010519007 255 255 255
-0.7013910224591271 -0.2057131418153710 1.5667125588447748 255 255 255
-0.9010684731911809 0.0812368179276122 1.6888624220333650 255 255 255
-0.2612908213806058 0.7563471748263892 0.5500753059988990 255 255 255
-1.6459003979786893 -0.4380601149612247 1.5737349599911834 255 255 255
-1.3280170075290663 0.0612533559238981 1.6771469122094533 255 255 255
-2.4227677623200163 0.2942152535759426 1.7295004831512115 255 255 255
-0.7325883947718559 -0.2129772936814289 1.6211129571879561 255 255 255
-1.2616463845634716 -0.6101174382029799 1.5871603899372904 255 255 255
-1.0390377829531985 -0.4677532733794545 1.7551464881775125 255 255 255
-0.7416823820071379 -0.2068512003264389 1.5582151888285907 255 255 255
-1.7766762585788189 -0.3745855305397070 1.6612441538140783 255 255 255
-0.2207898212389789 -0.0187350212799809 1.6523282209147148 255 255 255
0.0322408773835746 0.0966203636773760 1.7264650551403846 255 255 255
-1.2201675222271726 -0.0302267725885390 0.7750832827452576 255 255 255
-2.4243096056677089 -0.1262795814556674 1.6834607822533352 255 255 255
-0.2449449937968691 0.0802520466856471 1.7162757236704387 255 255 255
-1.2649624937120265 0.0420322854561226 1.6510412622367330 255 255 255
-1.3389602810882586 0.0387596339133802 1.6822331375065041 255 255 255
-1.3383363513926807 0.0734249957275730 1.7042918504373132 255 255 255
-1.3523212039518757 0.1294710515663367 1.7048075982673931 255 255 255
-0.8498727091061213 0.1409794538865248 0.9784981691953412 255 255 255
-1.1691170004509668 0.4508349225659575 0.8098759824091273 255 255 255
-0.9006525751126024 0.6375724287280383 1.0783452923305217 255 255 255
-0.7324548478871376 0.6673682137755279 1.1365496888182929 255 255 255
-0.6911157911069326 0.6854022917551067 0.7375861745795191 255 255 255
-0.5885203969754607 0.7036523319002552 0.5736456031808607 255 255 255
-0.4506970930858954 0.7612051897501535 0.3505463749585638 255 255 255
-0.2033432361390999 0.7422488558211707 0.9048773130799159 255 255 255
-0.1130326008478184 0.7892484648887367 0.6874981467733947 255 255 255
0.0603300318284813 0.7212807879431682 0.6747101070566323 255 255 255
-0.2974650717485869 0.8034859221725011 0.1757746272018014 255 255 255
-0.1062182834709553 0.8021883510383224 0.7090916507563880 255 255 255
0.1593630434699698 0.8184284878856536 1.4993500437061762 255 255 255
-0.2543658138757422 0.8113853778798726 0.1178868341933179 255 255 255
0.1653053086774516 0.8174591583790143 1.4352457410057085 255 255 255
0.0310625109662817 0.8138956207503318 0.9889917692173031 255 255 255
-0.0072551098569660 0.8013153956212258 0.7424014494529381 255 255 255
-0.1829122512541141 0.8204010926765669 0.3175932111013804 255 255 255
-0.1342217342399245 0.8269859656793619 0.3209450071415165 255 255 255
-0.1118276068888381 0.8337148076329568 0.3251750640614940 255 255 255
0.2309487634305268 0.8365979057940752 1.3508599693181935 255 255 255
0.2111430035962183 0.8382796625344486 1.0089186781065038 255 255 255
0.3630342185334916 0.8534272309365800 1.5461304125793118 255 255 255
0.2689237995546394 -0.0106346125862815 1.6927258974472945 255 255 255
-0.1855240532056526 0.1153178301717501 1.7150862521806960 255 255 255
-0.4403278309242785 0.1325953259987661 1.7027828978156043 255 255 255
-1.3736581773330432 0.2412823970666217 1.6888896624999168 255 255 255
-1.9250932192371351 0.5327561472607782 1.0086960646364846 255 255 255
-1.1938165022400014 0.6071913352504832 0.7444500474127053 255 255 255
-1.1466703519346695 0.6040368062275683 0.7636878391853951 255 255 255
-0.7702448026527637 0.6697745495142169 0.5790167204752772 255 255 255
-0.4553683892097944 0.7251598022833557 0.6838656424804210 255 255 255
-0.0218560712444017 0.7183698561799238 0.7736776881579635 255 255 255
-0.1996831933497991 0.7821842778807884 0.5965728331382099 255 255 255
0.1809704088027981 0.8219185770038329 1.5498844977570778 255 255 255
0.1766891920138938 0.8225323192987339 1.4720822111099370 255 255 255
-0.0071951685574548 0.8116833603546421 0.6338202783203910 255 255 255
0.0065190452677950 0.8151308932433436 0.6071190266216495 255 255 255
0.2200263088562213 0.8325877323680573 1.2096737484860647 255 255 255
0.0664632748170777 0.8218718210300398 0.6286359094004612 255 255 255
0.0643433015230137 0.8283258461588030 0.6116517431524771 255 255 255
-0.2147106804890200 -0.0267731569240048 1.6973442356171091 255 255 255
-0.3234171590559838 0.0561946781835127 1.6185677361633846 255 255 255
-0.8882442432970099 0.1621960081634096 1.0141901156421738 255 255 255
-2.4464853964452762 0.1446225665082342 1.6437228942116731 255 255 255
-1.4004830008203919 0.5692053125676857 0.7666639542226694 255 255 255
-0.1629727302453390 0.8167491739518153 0.4548145526102759 255 255 255
0.0280798122797945 0.8157609287144467 0.9896741829055973 255 255 255
-0.7221796283228432 -0.2943608837281451 1.6306390304075817 255 255 255
-0.7053243828153380 -0.2660193102324461 1.6506106251902553 255 255 255
-0.7167476796292243 -0.2467851271466671 1.6185376340570716 255 255 255
-0.6676186944057143 -0.2303165018188471 1.5057765335179107 255 255 255
-0.3627481844954481 -0.0605608240160418 1.6353637015788216 255 255 255
-0.2211120518412040 0.0119484861575238 1.6654240597474512 255 255 255
-0.1457321997801699 0.0753573817197970 1.7173664488070592 255 255 255
-0.8394764815405560 0.0890418997504795 0.7198447471815526 255 255 255
-1.8722640661099241 0.5227478397197172 0.3476219252905537 255 255 255
-1.0987431333494904 0.5878890713006829 1.0268849328467109 255 255 255
-1.0135529978427780 0.6219076643929122 1.0623016775466469 255 255 255
-0.7709269041730535 0.6679120293856038 0.5803733374046569 255 255 255
-0.7138455091838080 0.6771203483996959 0.5725026845007917 255 255 255
-0.4714487453491915 0.6745901304766205 0.6693906387040759 255 255 255
-0.3691580493958455 0.6929250114992155 0.6412192486621322 255 255 255
-0.4530184996948949 0.7321436436732006 0.6658982914353124 255 255 255
-0.5199224166159158 0.7502496924770760 0.4131241663825615 255 255 255
-0.3275965410728959 0.7454355112743409 0.6100826829071433 255 255 255
-0.2201625542532675 0.7642215625463773 0.7061103583886315 255 255 255
-0.2454233031915609 0.7719354827800099 0.6018406032018395 255 255 255
0.0233992208064748 0.7996119067687304 1.1929526228530158 255 255 255
-0.1179653226613295 0.7927446381868319 0.6775398854802401 255 255 255
-0.0335225042714660 0.7770155122983766 0.7100110893967684 255 255 255
-0.0222554870665903 0.8027006400630611 0.6721716489608089 255 255 255
0.2089813253975201 0.8304949974856206 1.2472238297883043 255 255 255
0.2094376502118660 0.8342974591538805 1.2069433823396363 255 255 255
-0.0207233061958489 0.0519571905885331 1.7415661237948570 255 255 255
-0.8326469077363674 0.0734354735371363 0.7598650738375783 255 255 255
-0.7592895289494460 0.7199208906973041 0.4104643903892616 255 255 255
-0.1766711289705235 0.7854955998410100 0.5489981372552251 255 255 255
0.1822726459521284 0.8213162759579751 1.4988936125248138 255 255 255
0.0131989419194833 0.8122579834002310 0.5939250507040714 255 255 255
-1.3703061044859819 0.2729047664325808 1.6687705405166273 255 255 255
-0.7466074939625944 -0.1927749407339809 1.5875501644593761 255 255 255
-1.7073947343671705 -0.2203577949775499 1.6526227783149841 255 255 255
-0.6667326944894505 0.5680126017340049 0.6708700451254093 255 255 255
-0.6991656911728183 0.6699742796016177 0.6812866384188971 255 255 255
-0.4902542637486745 0.7520599195602984 0.5466452647018341 255 255 255
0.0695953190526133 0.7954714971624206 1.8591444378255986 255 255 255
-0.7698284783668750 -0.3016298389052079 1.6826913288745529 255 255 255
-0.7846136060740697 -0.2212077749974430 1.6708495883974943 255 255 255
-0.7067508623878744 -0.3818161741199444 1.5444998010195796 255 255 255
-0.7033585011087773 -0.3363263023753689 1.5316286323583093 255 255 255
-0.7357421415816392 -0.2971992543034300 1.6420682921059975 255 255 255
-0.6611595441481735 -0.1799515495765562 1.7103110319093140 255 255 255
-0.6870872249557025 -0.0529368830119710 1.7014786742762062 255 255 255
-0.3056847088419783 0.0493011151041520 1.5292627628933699 255 255 255
-0.7626529598138774 0.0317634403705052 1.7077203843777831 255 255 255
-0.2401284075445602 0.1328792971856723 1.7134945922875948 255 255 255
-1.3402610123538139 0.0666521855104757 1.6815872231704225 255 255 255
-0.8517091149897758 0.0733541320292731 0.8103045808212240 255 255 255
-0.8829989787613777 0.0772263186182516 0.7736494100402593 255 255 255
-0.8381031351425778 0.0890593266838322 0.9282314089241677 255 255 255
-0.8792402917880402 0.0886690030303597 0.9104173979044337 255 255 255
-0.8475600997739670 0.1074035988506478 0.9601287442426045 255 255 255
-0.8610039121868457 0.1069742181599414 0.9472298750921299 255 255 255
-0.8260756877760232 0.1556094877485649 0.8545303938911484 255 255 255
-0.7583844380046929 0.1692470438408336 0.8326509771841103 255 255 255
-1.3646712704669479 0.2205905366341712 1.6695486896046012 255 255 255
-1.2040966833166651 0.5979204703919230 0.7226782834281362 255 255 255
-1.1944442708591385 0.6079438762055687 0.7436003124950665 255 255 255
-0.4387844829752293 0.5829885761693530 0.7006949708486681 255 255 255
-0.8890586622240281 0.6381868595289817 0.5346965451624992 255 255 255
-0.7229580916342568 0.6548244431669712 0.6674550231527803 255 255 255
-0.7332243178664886 0.6832641644846957 0.7736682703801121 255 255 255
-0.2167817731253817 0.6286330876833233 0.7200528970004467 255 255 255
-0.4530759998849207 0.7291682006176008 0.6000905277902786 255 255 255
-0.3712382727748063 0.7865010195837687 0.3644438372360341 255 255 255
-0.0854507719101827 0.7951269188693388 0.7089540245156192 255 255 255
-0.1242667282626038 0.7978139190788622 0.6112130160432290 255 255 255
0.2054755301864755 0.8407588703312423 1.1818305826118038 255 255 255
-0.1621604397667697 0.8176211441195522 0.4549811535512768 255 255 255
0.0588542717624960 0.8184455963016573 0.8052418295278414 255 255 255
0.3027637502178380 0.8490669228052861 1.1918280198018967 255 255 255
-0.2005596612613170 0.8227180433836612 0.1228289295645678 255 255 255
0.1957664514712996 0.8438433438494086 0.7431999672801480 255 255 255
-0.4570751874948262 0.5876637545918444 0.6904692079889545 255 255 255
-0.1620325776930498 0.7682371764276146 1.1820161699867437 255 255 255
-0.3234885327170718 0.7460208424381157 0.6060407886371513 255 255 255
-0.2813706141275439 0.7509441424047156 0.5740709768100627 255 255 255
-0.3873945960083063 0.7785067234406721 0.4229540484880809 255 255 255
0.1902689213170836 0.8255087320380632 1.5466171113536671 255 255 255
-0.2423991502929213 0.7671002096008186 0.5337829569648478 255 255 255
0.1917736949340005 0.8283194329869348 1.4056534698480423 255 255 255
-0.1965588571338199 0.8165120419014343 0.3761448656905729 255 255 255
0.3783822437764059 0.8659081144058014 1.4077589653449536 255 255 255
0.2130238614917052 0.8359818371235701 1.0214494995726153 255 255 255
-0.7084169426032307 -0.2914049492738484 1.5556227251045467 255 255 255
-0.3177116523942898 -0.0515021695880108 1.5796836963690941 255 255 255
-1.3375055831015217 0.1183051442528925 1.6981207613102773 255 255 255
-1.3722094617851388 0.2187003188108768 1.6789274692319065 255 255 255
-0.0758949054592553 -0.0002171380347470 1.7428080148955312 255 255 255
-1.6201238098603135 -0.2198457785636685 1.4932173051382400 255 255 255
-0.2285686792912989 0.0379407865457667 1.5362269548568648 255 255 255
-1.6628023251785389 -0.1198850781503160 1.6760463921741682 255 255 255
0.1699047137631351 0.1257122575966186 1.7329927317959957 255 255 255
-1.8604065637700371 0.5238169241301571 0.3455939075383516 255 255 255
-0.6459846316002044 0.5790966625628772 0.6918577666896797 255 255 255
-0.4566095762087247 0.5933578947321561 0.6904112680193411 255 255 255
-0.7695415392044787 0.6791474000832016 0.5625650430234018 255 255 255
-0.6956549262833407 0.6877362417929987 0.6965226141171277 255 255 255
-0.7036291040164376 0.6821663478317285 0.6250514339779780 255 255 255
-0.7147181763961563 0.6878096783277496 0.5542510664660067 255 255 255
-0.2101036508198368 0.6270877821629166 0.6905697839567277 255 255 255
-0.5217452314101707 0.7224281238205439 0.5645105732313883 255 255 255
-0.3149304998682980 0.7584296401546011 0.6074389482337733 255 255 255
-0.2566925702139929 0.7691778386433599 0.5859377854355072 255 255 255
-0.2427665054367660 0.7657989690594126 0.5341736395624829 255 255 255
0.0006833423319990 0.7850963564076699 0.7482132365942078 255 255 255
0.2180535091347626 0.8373784933678587 0.9851211592417659 255 255 255
0.3825444008863852 0.8659457400567927 1.3644119121079790 255 255 255
0.2300444658012273 0.8467408915899615 0.9239878971289404 255 255 255
0.2397118923531165 0.0380567307720576 1.7674192410088079 255 255 255
-0.4761937138860413 0.1132737187496546 1.6711167065176644 255 255 255
-0.4430921774713507 0.5990740684409693 0.6833881770618528 255 255 255
0.0506634565905486 0.7800510600574038 1.8521037473767450 255 255 255
-0.2112940008697972 0.6355128946076222 0.6968414413402708 255 255 255
-0.4686887371659232 0.7222692892472966 0.7060425619232122 255 255 255
-0.5359623505726741 0.7539611431048882 0.4205690513190166 255 255 255
-0.2480921684414001 0.7528398819803966 0.6107432878672980 255 255 255
-0.2400578282827528 0.7591778592619531 0.5361192264801450 255 255 255
0.0279375615404779 0.8126899789971540 0.5552428433389517 255 255 255
-0.0646814495602097 -0.0166972411660347 1.7414616545098367 255 255 255
-0.8838514694529935 0.6464565590550446 0.5554258272531781 255 255 255
-0.7385932320618593 0.6543324686844377 0.6559582273485716 255 255 255
-0.4649270278240469 0.7246887258920128 0.5997228032236037 255 255 255
-0.2403241982178768 0.7570979248288947 0.5374672983839173 255 255 255
-0.1085643963459090 0.7973607568584536 0.6520280049615951 255 255 255
-0.6915698628963307 0.6625468622437952 0.6805858924660617 255 255 255
-1.6679416769773017 -0.2200343773715712 1.5684582783845948 255 255 255
0.1656577203088476 -0.0656321382588435 1.5699927359657773 255 255 255
-0.7617889909445044 -0.2103783403502063 1.5664385471120692 255 255 255
0.1751682506488423 -0.0087856142378022 1.7262200159270824 255 255 255
-2.3861185278111794 -0.1870392270121021 1.6247667157135908 255 255 255
0.1612429488479523 0.1560713676963732 1.7339741293609041 255 255 255
-0.6671228548714550 0.0990284110250551 1.7111866051673950 255 255 255
-0.9332219195643159 0.1013104442604405 0.7443874289921861 255 255 255
-0.8661829407863889 0.1855287727860829 0.8629467527533672 255 255 255
-1.3215722460214239 0.5511208120023581 1.6599587562528049 255 255 255
-1.3622174774908278 0.5499193563602012 0.8418841450448482 255 255 255
-1.4704318728392654 0.5585579541965455 0.5367750608222206 255 255 255
-1.1042271704754523 0.6151910332311312 0.9835258265620430 255 255 255
-0.8028993271504170 0.6513139942572455 0.9624413678186752 255 255 255
-0.7074364141385683 0.6900721009005475 0.5748143772635768 255 255 255
-0.4557678827508315 0.7631554545309717 0.4304213374249313 255 255 255
-0.1527005179858560 0.8420962483411637 0.9709394356655492 255 255 255
0.4165728317802379 0.8655904097123928 1.5072764230934654 255 255 255
-0.2775389882608905 0.7930229187003592 0.4191612256042405 255 255 255
-0.2502825743366377 0.8133769905358410 0.2466859069361309 255 255 255
0.4226086289409246 0.8781386654802634 1.0195220870593820 255 255 255
-0.2399965943807030 0.8192413570503403 0.1136986400816409 255 255 255
-0.1777262364590386 0.8255353236226415 0.1982735934499460 255 255 255
-1.7572597305545286 -0.3745637332630642 1.5502984003189271 255 255 255
0.3592029375056566 0.0711507914168841 1.7542389786308044 255 255 255
0.2888288054729832 0.1701842331419465 1.7405796487109235 255 255 255
-0.9318496714630879 0.1038216409414674 0.7439630043307373 255 255 255
-0.7089118929269445 0.5826480578040646 0.6651715945548033 255 255 255
-0.2196016579302622 0.6274840209459523 0.6945224297306041 255 255 255
-0.4337030571540571 0.6794991333219387 0.6916334322374550 255 255 255
-0.7269640849701292 0.6881727361847075 0.5191622106807082 255 255 255
-0.2035727687678831 0.6379092534541673 0.6597209627598886 255 255 255
-0.2545416484887463 0.7210862555407442 0.6908770186377571 255 255 255
-0.2512431007218546 0.9505646284645364 0.9680911969904126 255 255 255
-0.0227207837334743 0.8066092128790536 0.6744298741469753 255 255 255
0.2500295601121330 -0.0548267886145940 1.7253902737285312 255 255 255
-0.8657560392618454 0.1527257162612195 0.9125405603012582 255 255 255
-0.6321160768808198 0.7046507516611474 0.6084925663444638 255 255 255
-0.2020658744275252 0.6930833425968453 0.6756279501415535 255 255 255
-0.7116281269027924 -0.2881279835389552 1.6160279896052119 255 255 255
0.1597411993394493 -0.0988742316313012 1.7680116166687139 255 255 255
-1.7627933216890348 -0.3861694951676951 1.5596254086143801 255 255 255
-0.0779545611974660 -0.0586554505766018 1.8165672947237070 255 255 255
-1.6491101318043793 -0.1896315483918206 1.6127254056330691 255 255 255
-2.4094692398931556 -0.2463758152802749 1.6683096952959460 255 255 255
-2.3755775283718279 -0.1961955095863831 1.6233708579822643 255 255 255
-0.9262037814326192 0.4004471758069938 1.6959863065861960 255 255 255
-1.5806472784279615 0.5185276211572253 0.9035517416622429 255 255 255
-1.4431530162148083 0.5575548860660735 0.6158988061778810 255 255 255
-1.3823580656341496 0.5683686796831890 0.6138000986926642 255 255 255
-0.7180374062335692 0.5945782352209923 0.6665703359459758 255 255 255
-0.7161148045276686 0.6855867492286829 0.5144035518399770 255 255 255
-0.4478639184070821 0.7312208523649439 0.6203643466005360 255 255 255
-0.1886981583063512 0.7806548635075109 0.5820337678404530 255 255 255
-0.1248934209773252 0.7859708368484773 0.5967543274174402 255 255 255
0.3097027044332526 0.8581579892079466 1.1833308225263837 255 255 255
0.1762402013795707 0.8095643795687044 1.6958543597828584 255 255 255
0.1789497342173492 0.8278403208679728 1.5951054639549671 255 255 255
-0.2118232329544765 0.7035658810964756 0.7392370222480300 255 255 255
-1.3235095118204403 -0.0163263690688715 1.6769390305125946 255 255 255
0.2398797791630853 -0.0225493603625093 1.4639273930896217 255 255 255
0.1872550872700551 0.1444855276400282 1.7337395578950554 255 255 255
-0.5019707367168815 0.7008660757476828 0.5886841670932730 255 255 255
-0.4676163767212618 0.7162072183761428 0.6953752133876290 255 255 255
-0.7547538262473031 -0.2581367006803351 1.4886124409771773 255 255 255
-1.6852944575186799 -0.3380988931636175 1.6533696230871948 255 255 255
-0.5915587399415001 0.0457435863461454 1.7203609146567165 255 255 255
-0.2546332390307434 0.7240929020911102 0.6412997475730833 255 255 255
-1.7227191620952831 -0.4095161737000572 1.5500834456378911 255 255 255
0.2601775216219053 0.0164262995227051 1.8020059780495288 255 255 255
0.0563556099853991 0.0469546493858891 1.7543875432277063 255 255 255
-0.1109981988293161 0.0339934875340253 1.7260077402944241 255 255 255
-0.4157219620258622 -0.0105008237309223 1.6970064294896181 255 255 255
-2.0911040108437224 -0.2315203341108444 1.6641446155886059 255 255 255
-1.0751825518159652 -0.0842764201597072 1.0783632819671807 255 255 255
-0.2407197616649279 0.0860232002275020 1.8048031578032226 255 255 255
-1.3327644366145561 0.0396830960199554 1.6789759096891137 255 255 255
-0.8870577830024331 0.0266547489103037 0.7776922895368320 255 255 255
-0.7715641590461887 0.1431041265553497 1.6656964520992568 255 255 255
-1.3870298445933109 0.3013898546575813 1.6943885280918547 255 255 255
0.4623001940946708 0.4264151165087143 1.7484799395890380 255 255 255
0.4172254452675660 0.4213600580059593 1.7174197226893979 255 255 255
-0.9842715825387338 0.5932319256983674 0.9962808729791466 255 255 255
-1.0946162846751939 0.6216306401242391 0.9946194688322310 255 255 255
-0.7061613734949301 0.5594032022892849 0.6661614623295866 255 255 255
-0.8751323030710820 0.6798986622758683 0.8236717670299896 255 255 255
-0.4607658398163092 0.6068187410869617 0.6795395380497710 255 255 255
-0.3076527416996192 0.7262789535315284 0.7261577317339973 255 255 255
0.0335738337829706 0.6862857589511527 0.7180976676047641 255 255 255
-0.5925472693149327 0.7512740408518672 0.1554358598320027 255 255 255
-0.4620468029709617 0.7737596851336259 0.2945784118207095 255 255 255
-0.4038524296266264 0.7875939676734287 0.3068508770864016 255 255 255
-0.4869302661397195 0.7739504143322729 0.1026153648980288 255 255 255
-0.3758481610872555 0.7985624769531028 0.1865679587271889 255 255 255
-0.2272652528721379 0.8165657437186682 0.2468552958584445 255 255 255
-0.2177024608051498 0.8175600533080063 0.2507659000848519 255 255 255
-0.1330271401908802 0.8284493190165967 0.3331802517216893 255 255 255
-0.2898091835111676 0.8109793547905819 -0.0142164764331758 255 255 255
-0.3426982670708876 -0.0636494303811215 1.5562782093388465 255 255 255
-0.2034886529556920 -0.0027063089762298 1.5289129926663891 255 255 255
-0.6669263821840370 0.6426801442014383 0.6867014440769381 255 255 255
0.0253069039592138 0.6812232998489068 0.6698187686917838 255 255 255
-0.4458215216481616 0.7297978303455541 0.5245956784853538 255 255 255
0.0228498286327865 0.7472823498975809 0.6824606588546849 255 255 255
0.0178368362040480 0.7577670301463783 0.6889229325962031 255 255 255
-0.0748315414153124 0.7883444405758031 0.6842687127951171 255 255 255
-0.1301789921378429 0.7880647687737358 0.6031819696910694 255 255 255
-0.4542260036503549 0.7840488992043886 0.1116173703440175 255 255 255
-0.0196133458299126 0.8478482373141729 0.4524632877148084 255 255 255
-0.3752090336818092 0.7998129190181167 -0.0865014250221305 255 255 255
0.1494583194687666 -0.1029467552681770 1.6102808785127978 255 255 255
0.2109308858933212 0.0556116816166203 1.7635515364262906 255 255 255
0.4731020145057130 0.1065759197521759 1.7397233813474184 255 255 255
-0.9619782455888126 0.6191163796648853 0.7164769637947375 255 255 255
0.3709041486402850 0.1643034496543748 1.7404041647715811 255 255 255
-1.3339652801003259 0.0486520434396905 1.6799578218032358 255 255 255
-0.7276989377189096 0.6574137049617315 0.6696650271270275 255 255 255
-0.2829152201482599 0.7060838686459164 0.7590909009627091 255 255 255
0.0077684978052041 0.6605928235694619 0.6651123146761018 255 255 255
0.0380989474552185 0.6587695790624405 0.6980032029557737 255 255 255
-0.3984422235316090 0.7828588410716839 0.4360974515454830 255 255 255
-0.3743862021453945 0.7890013161080014 0.3669131984823810 255 255 255
-0.0751685113253977 0.8376230524872788 0.3677680783179316 255 255 255
0.2610016206573220 0.8579759123513169 0.5681476544025692 255 255 255
-0.7136494683766146 -0.2532023461401630 1.4938931006867813 255 255 255
-0.6617091470213383 0.6027659064137350 0.6949740046006987 255 255 255
-0.7406996298061133 0.6625256355739593 0.6739493631688305 255 255 255
-0.4949017618752077 0.6506962344208034 0.6874239505899858 255 255 255
-0.6788387087647956 0.7030288486226788 0.6527129277020456 255 255 255
0.0182886738469208 0.6711218821387245 0.6969089293789947 255 255 255
0.3279609356676462 0.8665489170566225 1.0340294953189906 255 255 255
0.0110819476537152 1.8643427058173301 3.4691522217528314 255 255 255
-1.5850340249647554 0.5211097845662307 0.9018106372002910 255 255 255
-1.9159408198173198 0.4510054189752143 1.5844353834366471 255 255 255
-0.4529985864760009 0.6179878616328531 0.6979922014451021 255 255 255
0.2351345658938288 -0.0842908279486566 1.6913856808974843 255 255 255
-0.3953264312920941 -0.0412072104317386 1.6583810613790382 255 255 255
-1.0441483296276424 -0.1571414355016736 1.6979018114431290 255 255 255
-0.7357968156295608 -0.0921754518130294 1.7001418851982035 255 255 255
-0.3590502550880383 0.0306116408829646 1.6076456749037857 255 255 255
-0.3910019379993061 0.0647310589682629 1.7157289195077245 255 255 255
-2.4461891731240684 0.1825752364467261 1.6313227225084930 255 255 255
-1.3220554982414914 0.5637755199841181 1.4524631518050839 255 255 255
-1.0211706695362341 0.6263558689586751 1.1298296774838064 255 255 255
-0.9138428357665624 0.6251442496303090 1.0000570508076940 255 255 255
-1.6209472199199029 0.5656821141099716 0.3600779410309717 255 255 255
0.3031056761323365 1.6900661804417574 4.1480446570920488 255 255 255
-0.7384399136045010 0.7147979721966093 0.6648463555626840 255 255 255
0.5467268976457160 0.8983568113741516 1.4725872076692301 255 255 255
-1.6023299753279439 0.3479952334801339 -0.7560226987760927 255 255 255
-0.9892768153861182 0.6450393774244838 0.0227308855296082 255 255 255
-0.7176099793881798 0.7303339020635713 0.2874896845726127 255 255 255
-0.4366783591671610 0.7718411977385222 0.4296645778389196 255 255 255
-0.3368576201674922 0.7847481828762650 0.3720260512892768 255 255 255
-0.2236206789452462 0.8113690507413072 0.3746390082501811 255 255 255
-0.2254642272366965 0.8164508151145231 0.3149294064949384 255 255 255
-0.3073417098461197 0.8028272848584237 0.1289758008182993 255 255 255
-0.2622689758915844 0.8126271506725002 0.0514493210579436 255 255 255
-0.0906343611864897 0.8414241438656420 0.1265530606214895 255 255 255
-0.3742343666908534 0.0039049667589797 1.6496305694316562 255 255 255
-0.5385515059538579 0.7270827262162987 0.7644253961098944 255 255 255
-0.4283259815917807 0.8996295571183643 1.1115486206954026 255 255 255
-0.0345481755997330 0.7451530336168783 0.6887461112531139 255 255 255
0.3436898916848113 0.8558919800462585 1.0812058342411497 255 255 255
-0.2468589469828697 0.7687932925779140 0.5714271836301270 255 255 255
-0.2313399949577968 0.8099756765140413 0.4356271873540329 255 255 255
-0.5553842451155573 0.7643589470855137 -0.0304335429101146 255 255 255
-0.0991282425287587 0.8466406447490646 0.1480836264786696 255 255 255
-0.2102035073122505 0.0548679853892796 1.6099066041502736 255 255 255
0.4477136442626151 0.8636999662358740 1.5179010181768522 255 255 255
-0.3232277573514426 0.7573370527998153 0.5974640298036631 255 255 255
-0.4168590176845548 0.7847116621201833 0.1005808412593057 255 255 255
0.2563931573606859 0.0629031731077565 1.6843361307175417 255 255 255
-0.6900601047948780 0.5515919983074546 0.6863034773439356 255 255 255
-1.4467097875133681 0.5265589386850245 0.5129358769316283 255 255 255
-0.9431463319626522 0.6281123738168808 0.7363509571389890 255 255 255
-0.7237897903437752 0.6255580461825205 0.6791321565031421 255 255 255
-0.7530387962037997 0.6821430274788769 0.6700831005048244 255 255 255
-0.5168287247107086 0.7115218595945354 0.6009831811071566 255 255 255
0.5593063891804162 0.8889809977530994 1.3246309463591825 255 255 255
0.3039850890051278 0.8427901649386582 1.0919706135512879 255 255 255
-0.6658989508933799 0.7297478391172660 0.4053061144805863 255 255 255
-0.6079947666080163 0.7463353544730071 0.4206319268503549 255 255 255
-0.6042923491956059 0.7839969655017550 0.4845772219819175 255 255 255
-0.1126056152639398 0.7929426309039429 0.5514826926286425 255 255 255
-0.2167633253194718 0.1189238326633981 1.7403511239255569 255 255 255
-1.1910684337252786 0.0885047109838792 1.8702902656553881 255 255 255
-2.4269740664077082 0.3152558383457617 1.6805680403468071 255 255 255
-1.6551207269407049 0.3665434957641298 0.5738159529957967 255 255 255
-0.6582417039991211 0.6302680289398992 0.6917909737610726 255 255 255
-0.0802802831354673 0.7862619466275577 0.6679070763822066 255 255 255
0.4357748527676699 0.8583178880477993 0.6777612598898379 255 255 255
0.2673121651805611 0.5684308881703030 1.7652837272395812 255 255 255
0.2394499204627576 0.6297058314002354 1.6883720971209879 255 255 255
-0.1757318573877480 0.8882944647612947 1.0627916413558101 255 255 255
0.0276198411687604 0.8158440855160567 0.7122959549983507 255 255 255
-1.9374318892245055 0.4553845972983799 1.5507089518191681 255 255 255
-0.6912930067446093 0.5842860758006654 0.6963149079807200 255 255 255
-0.4498933332490109 0.7008555902416783 0.6706144292711156 255 255 255
-0.3035525110689252 0.7757731284991980 0.6559252219978386 255 255 255
0.0641952461335045 -0.0525151257307890 1.7614687422951847 255 255 255
-1.7288778785867649 -0.3927235765952641 1.5897178923233568 255 255 255
0.5919265367812212 0.0633945436824414 1.7575790152503998 255 255 255
-0.7020599221045327 -0.1002476815610514 1.7071110989083809 255 255 255
-0.8350459773671270 0.0400381239570840 0.7299662090347969 255 255 255
0.4253311322723786 0.3446939169311465 1.7549406274786019 255 255 255
-2.4561894324525237 0.0258121276192037 1.6544653527558206 255 255 255
0.2917400097352607 0.4343480809410192 1.7304135337701658 255 255 255
-1.2812207497796695 0.3041343376147256 1.7505317601182853 255 255 255
-1.2040516514858255 0.4930942163344169 0.7979934862485620 255 255 255
-1.5111460808396231 0.5522137063047756 0.7364952013900172 255 255 255
-1.0050436436301569 0.6295790157972719 0.7301740373188399 255 255 255
-0.0205830215220242 0.7021800127477311 0.6994879975522723 255 255 255
-0.5289970637615180 0.7581839910525301 0.4249494507162801 255 255 255
-0.5380298890766879 0.7428904413361234 0.3958515278800492 255 255 255
-0.4613580826643313 0.7537598137519832 0.4118808861498984 255 255 255
-1.7783397648896759 2.1243278049660148 3.1198790651992709 255 255 255
0.4198887014401440 0.8468705969587886 0.6592975220331390 255 255 255
-0.5007557651378065 0.7539930618246231 0.2755280933762307 255 255 255
-0.4084463589629383 0.7677534975729339 0.2757775231586477 255 255 255
-0.7069803111953805 0.7244440477011190 0.2764804516224222 255 255 255
-0.5504397159577885 0.7547529567682005 -0.0409805310800966 255 255 255
